ply
format ascii 1.0
element vertex 471
property float x
property float y
property float z
property float value
property float weight
property float scale_0
property float scale_1
property float scale_2
property float rot_0
property float rot_1
property float rot_2
property float rot_3
end_header
0.85577595 0.48975733 0.21991557 -68.25059 -2.1972246 -3.6431658 -3.6431658 -3.6431658 1.0 0.0 0.0 0.0
0.14641002 0.35265964 0.808813 -3.3441505 -2.1972246 -4.021851 -4.021851 -4.021851 1.0 0.0 0.0 0.0
0.73532623 0.6776947 0.12837926 -74.44215 -2.1972246 -3.944963 -3.944963 -3.944963 1.0 0.0 0.0 0.0
0.89247966 0.4248626 0.80052304 -45.00818 -2.1972246 -4.4363627 -4.4363627 -4.4363627 1.0 0.0 0.0 0.0
0.46915695 0.5664915 0.9934894 -5.035502 -2.1972246 -4.1072035 -4.1072035 -4.1072035 1.0 0.0 0.0 0.0
0.34547365 0.28472638 0.7978332 -6.299736 -2.1972246 -3.602036 -3.602036 -3.602036 1.0 0.0 0.0 0.0
0.7172614 0.85259295 0.7615007 -2.8928208 -2.1972246 -3.8636022 -3.8636022 -3.8636022 1.0 0.0 0.0 0.0
0.46076268 0.038642645 0.68178946 -42.241985 -2.1972246 -5.0622783 -5.0622783 -5.0622783 1.0 0.0 0.0 0.0
0.10737398 0.31633383 0.38955224 -6.1730633 -2.1972246 -4.0496373 -4.0496373 -4.0496373 1.0 0.0 0.0 0.0
0.14169493 0.74470985 0.7320239 -5.713602 -2.1972246 -4.1701765 -4.1701765 -4.1701765 1.0 0.0 0.0 0.0
0.05622199 0.4781986 0.34733033 -4.6324215 -2.1972246 -3.757298 -3.757298 -3.757298 1.0 0.0 0.0 0.0
0.7676979 0.08660507 0.5484142 -82.26167 -2.1972246 -3.9688883 -3.9688883 -3.9688883 1.0 0.0 0.0 0.0
0.14635816 0.47316024 0.8493284 -1.3223213 -2.1972246 -3.9030628 -3.9030628 -3.9030628 1.0 0.0 0.0 0.0
0.7514102 0.78196234 0.21103093 -62.47184 -2.1972246 -3.7392013 -3.7392013 -3.7392013 1.0 0.0 0.0 0.0
0.7882937 0.10025132 0.5774075 -82.90517 -2.1972246 -4.5241275 -4.5241275 -4.5241275 1.0 0.0 0.0 0.0
0.79666007 0.87300503 0.63995385 -8.003643 -2.1972246 -3.9846168 -3.9846168 -3.9846168 1.0 0.0 0.0 0.0
0.87435263 0.7602273 0.30284798 -72.674126 -2.1972246 -4.549596 -4.549596 -4.549596 1.0 0.0 0.0 0.0
0.22070894 0.6136833 0.8965628 -3.9850643 -2.1972246 -4.562642 -4.562642 -4.562642 1.0 0.0 0.0 0.0
0.68559533 0.7041874 0.9130241 -2.539382 -2.1972246 -4.311532 -4.311532 -4.311532 1.0 0.0 0.0 0.0
0.5644567 0.47859308 0.87147295 -4.78454 -2.1972246 -3.436567 -3.436567 -3.436567 1.0 0.0 0.0 0.0
0.46705845 0.05342233 0.30856773 -77.8633 -2.1972246 -4.222939 -4.222939 -4.222939 1.0 0.0 0.0 0.0
0.88842624 0.7015292 0.72004074 -19.885477 -2.1972246 -4.4445915 -4.4445915 -4.4445915 1.0 0.0 0.0 0.0
0.23784739 0.7776946 0.7077824 -4.24524 -2.1972246 -3.674679 -3.674679 -3.674679 1.0 0.0 0.0 0.0
0.81442094 0.8736764 0.5867408 -14.159577 -2.1972246 -4.9531097 -4.9531097 -4.9531097 1.0 0.0 0.0 0.0
0.4381019 0.7880763 0.8659275 -1.1598535 -2.1972246 -3.7009115 -3.7009115 -3.7009115 1.0 0.0 0.0 0.0
0.2958594 0.8254163 0.3030736 -6.2015696 -2.1972246 -3.5329542 -3.5329542 -3.5329542 1.0 0.0 0.0 0.0
0.535592 0.98250955 0.6171792 -3.3111007 -2.1972246 -4.0976405 -4.0976405 -4.0976405 1.0 0.0 0.0 0.0
0.17693377 0.20718983 0.2552748 -43.742992 -2.1972246 -3.7587616 -3.7587616 -3.7587616 1.0 0.0 0.0 0.0
0.1524612 0.42629558 0.14816988 -31.760674 -2.1972246 -3.9712372 -3.9712372 -3.9712372 1.0 0.0 0.0 0.0
0.8945934 0.65639865 0.76426405 -25.49963 -2.1972246 -4.4768004 -4.4768004 -4.4768004 1.0 0.0 0.0 0.0
0.14716232 0.46675774 0.8277694 -2.0923986 -2.1972246 -3.7689927 -3.7689927 -3.7689927 1.0 0.0 0.0 0.0
0.55606633 0.7859669 0.15154836 -25.548819 -2.1972246 -3.5733044 -3.5733044 -3.5733044 1.0 0.0 0.0 0.0
0.6948169 0.2749406 0.12451106 -83.75459 -2.1972246 -3.780212 -3.780212 -3.780212 1.0 0.0 0.0 0.0
0.65421027 0.95276713 0.63130003 -2.082512 -2.1972246 -4.0818014 -4.0818014 -4.0818014 1.0 0.0 0.0 0.0
0.6470473 0.8860706 0.48578018 -3.5961008 -2.1972246 -3.4949543 -3.4949543 -3.4949543 1.0 0.0 0.0 0.0
0.21655026 0.8002544 0.30466306 -5.831584 -2.1972246 -3.624757 -3.624757 -3.624757 1.0 0.0 0.0 0.0
0.22942224 0.5290915 0.8943839 -0.71279466 -2.1972246 -3.9995136 -3.9995136 -3.9995136 1.0 0.0 0.0 0.0
0.49134955 0.41339433 0.07404646 -65.81061 -2.1972246 -4.131931 -4.131931 -4.131931 1.0 0.0 0.0 0.0
0.096402645 0.21944356 0.5223107 -4.967257 -2.1972246 -3.6092343 -3.6092343 -3.6092343 1.0 0.0 0.0 0.0
0.8264742 0.7958989 0.27305493 -67.43291 -2.1972246 -4.962468 -4.962468 -4.962468 1.0 0.0 0.0 0.0
0.21773744 0.49874607 0.90872157 -0.99353975 -2.1972246 -5.0074663 -5.0074663 -5.0074663 1.0 0.0 0.0 0.0
0.6509241 0.26992822 0.54576415 -24.661015 -2.1972246 -3.1609201 -3.1609201 -3.1609201 1.0 0.0 0.0 0.0
0.9292947 0.5913577 0.26431102 -84.980156 -2.1972246 -4.697 -4.697 -4.697 1.0 0.0 0.0 0.0
0.95609367 0.4347094 0.68948656 -62.943874 -2.1972246 -4.0469975 -4.0469975 -4.0469975 1.0 0.0 0.0 0.0
0.5285864 0.68247116 0.13363406 -23.764828 -2.1972246 -3.2938395 -3.2938395 -3.2938395 1.0 0.0 0.0 0.0
0.7614824 0.1892389 0.46806234 -58.3351 -2.1972246 -4.073113 -4.073113 -4.073113 1.0 0.0 0.0 0.0
0.75716245 0.52493197 0.16200548 -63.7601 -2.1972246 -3.6161857 -3.6161857 -3.6161857 1.0 0.0 0.0 0.0
0.9264375 0.63133454 0.46854407 -54.712746 -2.1972246 -3.3599756 -3.3599756 -3.3599756 1.0 0.0 0.0 0.0
0.44414604 0.27822635 0.20621037 -48.142723 -2.1972246 -3.186159 -3.186159 -3.186159 1.0 0.0 0.0 0.0
0.17388764 0.8525491 0.36895382 -5.68729 -2.1972246 -3.9974713 -3.9974713 -3.9974713 1.0 0.0 0.0 0.0
0.11339721 0.79285467 0.40905285 -4.621441 -2.1972246 -4.480949 -4.480949 -4.480949 1.0 0.0 0.0 0.0
0.8982625 0.41233844 0.38978592 -66.47427 -2.1972246 -3.6003475 -3.6003475 -3.6003475 1.0 0.0 0.0 0.0
0.7954176 0.22217476 0.20907962 -88.06613 -2.1972246 -4.623531 -4.623531 -4.623531 1.0 0.0 0.0 0.0
0.91076684 0.40464947 0.76661414 -54.836895 -2.1972246 -4.696709 -4.696709 -4.696709 1.0 0.0 0.0 0.0
0.060262024 0.69492245 0.3898514 -4.002824 -2.1972246 -3.7132854 -3.7132854 -3.7132854 1.0 0.0 0.0 0.0
0.54144883 0.48627272 0.7794254 -7.134654 -2.1972246 -3.090676 -3.090676 -3.090676 1.0 0.0 0.0 0.0
0.8503469 0.62703353 0.63344073 -7.201053 -2.1972246 -3.5210304 -3.5210304 -3.5210304 1.0 0.0 0.0 0.0
0.6856888 0.043810427 0.5552845 -77.31313 -2.1972246 -3.7103581 -3.7103581 -3.7103581 1.0 0.0 0.0 0.0
0.72188777 0.2707758 0.87979025 -24.62435 -2.1972246 -4.46681 -4.46681 -4.46681 1.0 0.0 0.0 0.0
0.8075571 0.59086525 0.8826157 -7.7467623 -2.1972246 -4.195036 -4.195036 -4.195036 1.0 0.0 0.0 0.0
0.5259057 0.5501945 0.92166793 -5.720574 -2.1972246 -3.5566864 -3.5566864 -3.5566864 1.0 0.0 0.0 0.0
0.41022158 0.3406601 0.9513465 -3.7317247 -2.1972246 -3.9181037 -3.9181037 -3.9181037 1.0 0.0 0.0 0.0
0.59636235 0.3456497 0.84820867 -5.4702644 -2.1972246 -3.4348032 -3.4348032 -3.4348032 1.0 0.0 0.0 0.0
0.54832447 0.06424388 0.346164 -74.81473 -2.1972246 -3.8693953 -3.8693953 -3.8693953 1.0 0.0 0.0 0.0
0.8651484 0.8350551 0.47942668 -38.969913 -2.1972246 -4.8114758 -4.8114758 -4.8114758 1.0 0.0 0.0 0.0
0.64709747 0.64349216 0.9546169 -4.289601 -2.1972246 -4.669905 -4.669905 -4.669905 1.0 0.0 0.0 0.0
0.62061644 0.59334797 0.030708194 -80.15359 -2.1972246 -3.8004622 -3.8004622 -3.8004622 1.0 0.0 0.0 0.0
0.25447288 0.22910255 0.466588 -4.3451176 -2.1972246 -2.9326167 -2.9326167 -2.9326167 1.0 0.0 0.0 0.0
0.71986294 0.24511772 0.69717973 -16.407846 -2.1972246 -3.7432494 -3.7432494 -3.7432494 1.0 0.0 0.0 0.0
0.54427093 0.060068727 0.7158728 -46.81756 -2.1972246 -4.429338 -4.429338 -4.429338 1.0 0.0 0.0 0.0
0.5795216 0.7660006 0.9153806 -1.6789682 -2.1972246 -4.183291 -4.183291 -4.183291 1.0 0.0 0.0 0.0
0.48590747 0.49005902 0.010500789 -72.70471 -2.1972246 -4.530657 -4.530657 -4.530657 1.0 0.0 0.0 0.0
0.31461805 0.32474184 0.19366062 -20.988338 -2.1972246 -4.0118876 -4.0118876 -4.0118876 1.0 0.0 0.0 0.0
0.20560521 0.36950377 0.43884274 -5.544386 -2.1972246 -3.19475 -3.19475 -3.19475 1.0 0.0 0.0 0.0
0.8908081 0.24575141 0.34275123 -84.52357 -2.1972246 -4.15403 -4.15403 -4.15403 1.0 0.0 0.0 0.0
0.74641746 0.60668534 0.8855113 -3.219484 -2.1972246 -3.8307638 -3.8307638 -3.8307638 1.0 0.0 0.0 0.0
0.7152345 0.20720449 0.3658898 -55.173115 -2.1972246 -3.3864794 -3.3864794 -3.3864794 1.0 0.0 0.0 0.0
0.7033868 0.17662647 0.18252492 -88.31745 -2.1972246 -4.9901595 -4.9901595 -4.9901595 1.0 0.0 0.0 0.0
0.18588662 0.7637352 0.21469745 -5.093004 -2.1972246 -4.1258 -4.1258 -4.1258 1.0 0.0 0.0 0.0
0.34791672 0.8215531 0.3331669 -7.5064273 -2.1972246 -3.2866955 -3.2866955 -3.2866955 1.0 0.0 0.0 0.0
0.27782124 0.93473065 0.6079159 -3.221679 -2.1972246 -3.7283869 -3.7283869 -3.7283869 1.0 0.0 0.0 0.0
0.41747376 0.018332481 0.56843084 -52.673923 -2.1972246 -3.981491 -3.981491 -3.981491 1.0 0.0 0.0 0.0
0.20868424 0.1772106 0.26969016 -45.817783 -2.1972246 -4.141534 -4.141534 -4.141534 1.0 0.0 0.0 0.0
0.68497217 0.35238293 0.9125621 -5.3797784 -2.1972246 -3.5745072 -3.5745072 -3.5745072 1.0 0.0 0.0 0.0
0.88676715 0.64647263 0.77775246 -22.213812 -2.1972246 -4.4624734 -4.4624734 -4.4624734 1.0 0.0 0.0 0.0
0.5236719 0.46988884 0.44757527 -4.1990786 -2.1972246 -3.8977194 -3.8977194 -3.8977194 1.0 0.0 0.0 0.0
0.46845388 0.003708452 0.4480429 -71.01455 -2.1972246 -3.8463864 -3.8463864 -3.8463864 1.0 0.0 0.0 0.0
0.41019768 0.01767248 0.47425526 -61.62244 -2.1972246 -3.8219185 -3.8219185 -3.8219185 1.0 0.0 0.0 0.0
0.4401753 0.8536701 0.29766372 -4.018243 -2.1972246 -3.2703986 -3.2703986 -3.2703986 1.0 0.0 0.0 0.0
0.61835605 0.6611246 0.95470625 -2.9306018 -2.1972246 -4.887761 -4.887761 -4.887761 1.0 0.0 0.0 0.0
0.37892318 0.48388535 0.062484562 -48.218 -2.1972246 -3.5727873 -3.5727873 -3.5727873 1.0 0.0 0.0 0.0
0.826888 0.32008278 0.7445908 -30.75867 -2.1972246 -3.5952544 -3.5952544 -3.5952544 1.0 0.0 0.0 0.0
0.21420187 0.41822076 0.85709345 -3.4862638 -2.1972246 -3.424388 -3.424388 -3.424388 1.0 0.0 0.0 0.0
0.7564618 0.78619367 0.8164392 -1.9255644 -2.1972246 -4.5411177 -4.5411177 -4.5411177 1.0 0.0 0.0 0.0
0.23181394 0.41946256 0.20410228 -6.823567 -2.1972246 -4.155313 -4.155313 -4.155313 1.0 0.0 0.0 0.0
0.40703726 0.43648082 0.6775242 -5.644369 -2.1972246 -3.786342 -3.786342 -3.786342 1.0 0.0 0.0 0.0
0.37330174 0.13171527 0.7106974 -6.0357723 -2.1972246 -3.520812 -3.520812 -3.520812 1.0 0.0 0.0 0.0
0.28412902 0.7986596 0.79141796 -3.3573933 -2.1972246 -3.6520014 -3.6520014 -3.6520014 1.0 0.0 0.0 0.0
0.5294 0.14588949 0.84552425 -17.199877 -2.1972246 -4.7426887 -4.7426887 -4.7426887 1.0 0.0 0.0 0.0
0.050036192 0.6414994 0.35029376 -4.883357 -2.1972246 -3.942977 -3.942977 -3.942977 1.0 0.0 0.0 0.0
0.47495922 0.50286686 0.5009891 -6.4355125 -2.1972246 -4.1151347 -4.1151347 -4.1151347 1.0 0.0 0.0 0.0
0.73532486 0.08866814 0.45948735 -78.078354 -2.1972246 -3.8105435 -3.8105435 -3.8105435 1.0 0.0 0.0 0.0
0.73467314 0.58862793 0.09734702 -75.92355 -2.1972246 -3.919297 -3.919297 -3.919297 1.0 0.0 0.0 0.0
0.27311587 0.68212 0.9052901 -3.741099 -2.1972246 -3.8865094 -3.8865094 -3.8865094 1.0 0.0 0.0 0.0
0.73409474 0.86623275 0.6751183 -2.3552797 -2.1972246 -3.6169806 -3.6169806 -3.6169806 1.0 0.0 0.0 0.0
0.96588194 0.598628 0.38539875 -80.57084 -2.1972246 -4.0146127 -4.0146127 -4.0146127 1.0 0.0 0.0 0.0
0.5492112 0.1433323 0.15622732 -84.19493 -2.1972246 -4.0841594 -4.0841594 -4.0841594 1.0 0.0 0.0 0.0
0.6284099 0.7079495 0.7184162 -6.2018924 -2.1972246 -3.1340487 -3.1340487 -3.1340487 1.0 0.0 0.0 0.0
0.3692662 0.74847114 0.81561923 -2.5095677 -2.1972246 -3.6510563 -3.6510563 -3.6510563 1.0 0.0 0.0 0.0
0.88131607 0.69340694 0.7514167 -19.06492 -2.1972246 -4.240956 -4.240956 -4.240956 1.0 0.0 0.0 0.0
0.85935324 0.8338221 0.55408347 -26.902302 -2.1972246 -4.8296247 -4.8296247 -4.8296247 1.0 0.0 0.0 0.0
0.2270351 0.22933903 0.620997 -5.119049 -2.1972246 -3.7923005 -3.7923005 -3.7923005 1.0 0.0 0.0 0.0
0.89097095 0.34727925 0.72367626 -54.222824 -2.1972246 -3.7515197 -3.7515197 -3.7515197 1.0 0.0 0.0 0.0
0.97668314 0.5657704 0.63300407 -61.68392 -2.1972246 -4.0329046 -4.0329046 -4.0329046 1.0 0.0 0.0 0.0
0.47680804 0.06549874 0.7187096 -31.308792 -2.1972246 -4.0519133 -4.0519133 -4.0519133 1.0 0.0 0.0 0.0
0.103261024 0.59937793 0.22780651 -5.5201106 -2.1972246 -3.952633 -3.952633 -3.952633 1.0 0.0 0.0 0.0
0.6158421 0.7992399 0.18835396 -24.989569 -2.1972246 -3.71384 -3.71384 -3.71384 1.0 0.0 0.0 0.0
0.15614656 0.748537 0.24169552 -3.9376736 -2.1972246 -4.4726562 -4.4726562 -4.4726562 1.0 0.0 0.0 0.0
0.11297813 0.19159195 0.5 -6.3505754 -2.1972246 -4.3263326 -4.3263326 -4.3263326 1.0 0.0 0.0 0.0
0.78254414 0.45808855 0.60380566 -9.55194 -2.1972246 -3.188701 -3.188701 -3.188701 1.0 0.0 0.0 0.0
0.53842634 0.890149 0.7493819 -2.809537 -2.1972246 -4.0902295 -4.0902295 -4.0902295 1.0 0.0 0.0 0.0
0.44435894 0.02489674 0.36743674 -72.81078 -2.1972246 -4.009927 -4.009927 -4.009927 1.0 0.0 0.0 0.0
0.48927528 0.79692966 0.90214145 -4.1366506 -2.1972246 -3.9190898 -3.9190898 -3.9190898 1.0 0.0 0.0 0.0
0.3351192 0.92210114 0.42491442 -3.1495934 -2.1972246 -3.3057652 -3.3057652 -3.3057652 1.0 0.0 0.0 0.0
0.1848934 0.23050782 0.6976731 -4.715827 -2.1972246 -3.7457805 -3.7457805 -3.7457805 1.0 0.0 0.0 0.0
0.9507704 0.5575377 0.6867152 -50.819363 -2.1972246 -5.044367 -5.044367 -5.044367 1.0 0.0 0.0 0.0
0.7199875 0.22513425 0.25298992 -69.68011 -2.1972246 -3.4768348 -3.4768348 -3.4768348 1.0 0.0 0.0 0.0
0.44896108 0.44896108 0.44896108 -4.2437186 -2.1972246 -4.0751777 -4.0751777 -4.0751777 1.0 0.0 0.0 0.0
0.35241812 0.03414601 0.44933683 -58.22861 -2.1972246 -4.0829597 -4.0829597 -4.0829597 1.0 0.0 0.0 0.0
0.82919204 0.7839631 0.33604354 -46.39308 -2.1972246 -3.6177871 -3.6177871 -3.6177871 1.0 0.0 0.0 0.0
0.44751877 0.77062166 0.1562441 -10.697195 -2.1972246 -3.5938766 -3.5938766 -3.5938766 1.0 0.0 0.0 0.0
0.5271059 0.5669314 0.49882653 -7.1383667 -2.1972246 -4.113251 -4.113251 -4.113251 1.0 0.0 0.0 0.0
0.24753636 0.854633 0.7459625 -3.6389108 -2.1972246 -4.276226 -4.276226 -4.276226 1.0 0.0 0.0 0.0
0.9429989 0.50543666 0.5417367 -59.985752 -2.1972246 -3.6375794 -3.6375794 -3.6375794 1.0 0.0 0.0 0.0
0.3840633 0.65358454 0.39925054 -7.978533 -2.1972246 -3.3136718 -3.3136718 -3.3136718 1.0 0.0 0.0 0.0
0.87973654 0.22196352 0.33119276 -85.369255 -2.1972246 -4.133358 -4.133358 -4.133358 1.0 0.0 0.0 0.0
0.4104135 0.10105318 0.22629175 -77.5458 -2.1972246 -4.6115384 -4.6115384 -4.6115384 1.0 0.0 0.0 0.0
0.91522783 0.49156737 0.328007 -69.90558 -2.1972246 -4.0098286 -4.0098286 -4.0098286 1.0 0.0 0.0 0.0
0.2420133 0.34392896 0.11211884 -54.15758 -2.1972246 -3.7468555 -3.7468555 -3.7468555 1.0 0.0 0.0 0.0
0.9214054 0.415713 0.74907887 -56.403324 -2.1972246 -4.5779204 -4.5779204 -4.5779204 1.0 0.0 0.0 0.0
0.9809674 0.61110914 0.5443931 -66.246605 -2.1972246 -4.006032 -4.006032 -4.006032 1.0 0.0 0.0 0.0
0.3473121 0.13137877 0.39798877 -20.77276 -2.1972246 -3.6405232 -3.6405232 -3.6405232 1.0 0.0 0.0 0.0
0.73932105 0.22005469 0.16239509 -90.956505 -2.1972246 -5.0966616 -5.0966616 -5.0966616 1.0 0.0 0.0 0.0
0.9339013 0.51598155 0.4025642 -68.64285 -2.1972246 -3.425937 -3.425937 -3.425937 1.0 0.0 0.0 0.0
0.6853468 0.092041224 0.27815276 -88.4716 -2.1972246 -4.7695103 -4.7695103 -4.7695103 1.0 0.0 0.0 0.0
0.5319081 0.7073543 0.048558623 -64.40671 -2.1972246 -4.3296394 -4.3296394 -4.3296394 1.0 0.0 0.0 0.0
0.0863193 0.6864174 0.29177064 -3.4615996 -2.1972246 -3.868355 -3.868355 -3.868355 1.0 0.0 0.0 0.0
0.8182137 0.8821045 0.5523084 -19.411919 -2.1972246 -5.165983 -5.165983 -5.165983 1.0 0.0 0.0 0.0
0.57170165 0.27877438 0.8526511 -3.4835496 -2.1972246 -3.533786 -3.533786 -3.533786 1.0 0.0 0.0 0.0
0.7257714 0.083774894 0.65712464 -72.06476 -2.1972246 -3.7011049 -3.7011049 -3.7011049 1.0 0.0 0.0 0.0
0.3312176 0.3012545 0.70214355 -7.089619 -2.1972246 -3.4857175 -3.4857175 -3.4857175 1.0 0.0 0.0 0.0
0.5183158 0.13506362 0.83486056 -18.191166 -2.1972246 -4.2640862 -4.2640862 -4.2640862 1.0 0.0 0.0 0.0
0.8920908 0.58300626 0.7983216 -29.409601 -2.1972246 -4.7746654 -4.7746654 -4.7746654 1.0 0.0 0.0 0.0
0.48161796 0.12582487 0.7704535 -10.65212 -2.1972246 -3.408943 -3.408943 -3.408943 1.0 0.0 0.0 0.0
0.25539452 0.8565277 0.36073342 -4.300136 -2.1972246 -3.8639817 -3.8639817 -3.8639817 1.0 0.0 0.0 0.0
0.16613814 0.7716336 0.33194807 -5.45009 -2.1972246 -3.8075247 -3.8075247 -3.8075247 1.0 0.0 0.0 0.0
0.083146244 0.7098265 0.59175366 -0.74695987 -2.1972246 -3.9732246 -3.9732246 -3.9732246 1.0 0.0 0.0 0.0
0.56241935 0.40053555 0.7057691 -6.076024 -2.1972246 -3.2725391 -3.2725391 -3.2725391 1.0 0.0 0.0 0.0
0.6003827 0.6305379 0.9717035 -3.671737 -2.1972246 -4.1942058 -4.1942058 -4.1942058 1.0 0.0 0.0 0.0
0.29671133 0.7067644 0.541128 -0.95403695 -2.1972246 -3.2172017 -3.2172017 -3.2172017 1.0 0.0 0.0 0.0
0.6406315 0.2835926 0.82092386 -4.3411155 -2.1972246 -3.5022416 -3.5022416 -3.5022416 1.0 0.0 0.0 0.0
0.5969049 0.797015 0.10962641 -61.393253 -2.1972246 -4.4793925 -4.4793925 -4.4793925 1.0 0.0 0.0 0.0
0.40728924 0.46700403 0.8350136 -3.5466042 -2.1972246 -3.2046902 -3.2046902 -3.2046902 1.0 0.0 0.0 0.0
0.42907432 0.041268736 0.3262738 -73.99673 -2.1972246 -3.316842 -3.316842 -3.316842 1.0 0.0 0.0 0.0
0.507161 0.27879846 0.14738724 -62.362972 -2.1972246 -3.7446792 -3.7446792 -3.7446792 1.0 0.0 0.0 0.0
0.939243 0.4145627 0.5781349 -63.10246 -2.1972246 -3.5475001 -3.5475001 -3.5475001 1.0 0.0 0.0 0.0
0.08701903 0.75098836 0.3747236 -3.8906338 -2.1972246 -4.18891 -4.18891 -4.18891 1.0 0.0 0.0 0.0
0.6551074 0.85395825 0.78328884 -3.8884866 -2.1972246 -3.987734 -3.987734 -3.987734 1.0 0.0 0.0 0.0
0.89623094 0.60443443 0.78334427 -28.837511 -2.1972246 -4.4497495 -4.4497495 -4.4497495 1.0 0.0 0.0 0.0
0.5437484 0.37648958 0.7786351 -7.112093 -2.1972246 -3.1589355 -3.1589355 -3.1589355 1.0 0.0 0.0 0.0
0.75794435 0.60429144 0.41935968 -16.273129 -2.1972246 -3.2114902 -3.2114902 -3.2114902 1.0 0.0 0.0 0.0
0.71431994 0.21445033 0.8123846 -27.215878 -2.1972246 -3.8020537 -3.8020537 -3.8020537 1.0 0.0 0.0 0.0
0.7715255 0.6680382 0.20041773 -64.32045 -2.1972246 -4.276406 -4.276406 -4.276406 1.0 0.0 0.0 0.0
0.8784232 0.21207738 0.35887963 -85.54933 -2.1972246 -4.35612 -4.35612 -4.35612 1.0 0.0 0.0 0.0
0.27097338 0.6558547 0.37025803 -7.1676717 -2.1972246 -3.440297 -3.440297 -3.440297 1.0 0.0 0.0 0.0
0.22610682 0.08459455 0.48469973 -31.300179 -2.1972246 -3.627799 -3.627799 -3.627799 1.0 0.0 0.0 0.0
0.5965595 0.41936207 0.8663529 -5.9222484 -2.1972246 -3.2409344 -3.2409344 -3.2409344 1.0 0.0 0.0 0.0
0.988247 0.40234375 0.54558676 -78.54405 -2.1972246 -4.2882338 -4.2882338 -4.2882338 1.0 0.0 0.0 0.0
0.83505595 0.18874899 0.303344 -86.423904 -2.1972246 -4.2742248 -4.2742248 -4.2742248 1.0 0.0 0.0 0.0
0.46079752 0.6095636 0.41314942 -4.338955 -2.1972246 -2.9128993 -2.9128993 -2.9128993 1.0 0.0 0.0 0.0
0.40720424 0.03348419 0.37704057 -67.37247 -2.1972246 -3.8689687 -3.8689687 -3.8689687 1.0 0.0 0.0 0.0
0.8761388 0.49538386 0.41385913 -57.08256 -2.1972246 -3.296948 -3.296948 -3.296948 1.0 0.0 0.0 0.0
0.7575272 0.75971925 0.6513689 -4.4674497 -2.1972246 -3.386087 -3.386087 -3.386087 1.0 0.0 0.0 0.0
0.4893486 0.71681446 0.6870254 -0.693459 -2.1972246 -3.2239163 -3.2239163 -3.2239163 1.0 0.0 0.0 0.0
0.7888464 0.17333907 0.34719157 -74.07769 -2.1972246 -3.4755611 -3.4755611 -3.4755611 1.0 0.0 0.0 0.0
0.2262578 0.14923179 0.35296237 -25.239374 -2.1972246 -3.6331291 -3.6331291 -3.6331291 1.0 0.0 0.0 0.0
0.69166183 0.2626189 0.89059126 -19.86492 -2.1972246 -4.724599 -4.724599 -4.724599 1.0 0.0 0.0 0.0
0.49598357 0.06362963 0.7349689 -36.710922 -2.1972246 -4.2930546 -4.2930546 -4.2930546 1.0 0.0 0.0 0.0
0.973403 0.652622 0.4941902 -66.91302 -2.1972246 -4.258855 -4.258855 -4.258855 1.0 0.0 0.0 0.0
0.7163098 0.69811213 0.11815983 -74.88059 -2.1972246 -3.7591808 -3.7591808 -3.7591808 1.0 0.0 0.0 0.0
0.16833797 0.73569185 0.5203761 -1.3045924 -2.1972246 -3.4996927 -3.4996927 -3.4996927 1.0 0.0 0.0 0.0
0.9648866 0.47143906 0.44844505 -75.446304 -2.1972246 -3.8715599 -3.8715599 -3.8715599 1.0 0.0 0.0 0.0
0.23911944 0.35284477 0.23263657 -7.6723466 -2.1972246 -3.4548693 -3.4548693 -3.4548693 1.0 0.0 0.0 0.0
0.4839769 0.9350296 0.59768915 -2.699742 -2.1972246 -3.7063856 -3.7063856 -3.7063856 1.0 0.0 0.0 0.0
0.26787633 0.9418918 0.47829124 -4.9131618 -2.1972246 -4.297936 -4.297936 -4.297936 1.0 0.0 0.0 0.0
0.32130456 0.63336414 0.141215 -10.974687 -2.1972246 -4.0283513 -4.0283513 -4.0283513 1.0 0.0 0.0 0.0
0.18151593 0.7904419 0.25458202 -3.978665 -2.1972246 -4.3631506 -4.3631506 -4.3631506 1.0 0.0 0.0 0.0
0.74975276 0.3131249 0.25630313 -61.99299 -2.1972246 -3.816726 -3.816726 -3.816726 1.0 0.0 0.0 0.0
0.9365052 0.6207973 0.5 -53.807793 -2.1972246 -3.6526504 -3.6526504 -3.6526504 1.0 0.0 0.0 0.0
0.4051466 0.82617605 0.8598798 -0.7939384 -2.1972246 -4.4290605 -4.4290605 -4.4290605 1.0 0.0 0.0 0.0
0.29519314 0.6330891 0.064587474 -41.371338 -2.1972246 -3.5799618 -3.5799618 -3.5799618 1.0 0.0 0.0 0.0
0.44588247 0.33599985 0.74099624 -8.273213 -2.1972246 -3.6681414 -3.6681414 -3.6681414 1.0 0.0 0.0 0.0
0.37756774 0.7672997 0.23495641 -5.8302 -2.1972246 -3.6963556 -3.6963556 -3.6963556 1.0 0.0 0.0 0.0
0.3473763 0.9265547 0.70285255 -1.4164035 -2.1972246 -3.7524774 -3.7524774 -3.7524774 1.0 0.0 0.0 0.0
0.5209228 0.85852873 0.8462999 -3.084715 -2.1972246 -4.4332066 -4.4332066 -4.4332066 1.0 0.0 0.0 0.0
0.5009398 0.9434962 0.7130978 -2.438237 -2.1972246 -4.5917606 -4.5917606 -4.5917606 1.0 0.0 0.0 0.0
0.25892574 0.6245942 0.122847974 -13.400679 -2.1972246 -3.8228574 -3.8228574 -3.8228574 1.0 0.0 0.0 0.0
0.68745804 0.9373065 0.3961465 -11.90349 -2.1972246 -4.1291504 -4.1291504 -4.1291504 1.0 0.0 0.0 0.0
0.58988774 0.46697557 0.4955841 -5.0597553 -2.1972246 -3.9504735 -3.9504735 -3.9504735 1.0 0.0 0.0 0.0
0.8602226 0.61900145 0.30745703 -63.901978 -2.1972246 -4.016812 -4.016812 -4.016812 1.0 0.0 0.0 0.0
0.5956617 0.7366003 0.27473783 -6.7499814 -2.1972246 -3.1246972 -3.1246972 -3.1246972 1.0 0.0 0.0 0.0
0.78673124 0.3216408 0.8598196 -30.45509 -2.1972246 -4.0559125 -4.0559125 -4.0559125 1.0 0.0 0.0 0.0
0.17735204 0.13056901 0.5540001 -10.293773 -2.1972246 -3.6619215 -3.6619215 -3.6619215 1.0 0.0 0.0 0.0
0.40965098 0.7734904 0.26408556 -5.333101 -2.1972246 -3.609626 -3.609626 -3.609626 1.0 0.0 0.0 0.0
0.04989317 0.4133358 0.67680573 -5.7118316 -2.1972246 -3.4237292 -3.4237292 -3.4237292 1.0 0.0 0.0 0.0
0.5864253 0.908241 0.5656865 -5.84601 -2.1972246 -3.4559786 -3.4559786 -3.4559786 1.0 0.0 0.0 0.0
0.36547375 0.14477786 0.8127626 -7.645041 -2.1972246 -4.120287 -4.120287 -4.120287 1.0 0.0 0.0 0.0
0.30811357 0.62744755 0.811412 -5.519963 -2.1972246 -3.7306504 -3.7306504 -3.7306504 1.0 0.0 0.0 0.0
0.7879665 0.8784809 0.42471546 -22.518867 -2.1972246 -4.0753846 -4.0753846 -4.0753846 1.0 0.0 0.0 0.0
0.7854296 0.3075273 0.2989778 -61.38231 -2.1972246 -3.5282726 -3.5282726 -3.5282726 1.0 0.0 0.0 0.0
0.46621132 0.99209994 0.5642927 -4.585178 -2.1972246 -4.291603 -4.291603 -4.291603 1.0 0.0 0.0 0.0
0.90528655 0.31828985 0.4175964 -71.62776 -2.1972246 -3.6490297 -3.6490297 -3.6490297 1.0 0.0 0.0 0.0
0.0783515 0.73715514 0.3810065 -3.355198 -2.1972246 -4.271578 -4.271578 -4.271578 1.0 0.0 0.0 0.0
0.28831694 0.9440365 0.4364354 -3.4021218 -2.1972246 -4.4225597 -4.4225597 -4.4225597 1.0 0.0 0.0 0.0
0.79939294 0.7081993 0.16967076 -79.63531 -2.1972246 -3.8091605 -3.8091605 -3.8091605 1.0 0.0 0.0 0.0
0.4916759 0.90988237 0.7480412 -3.2217128 -2.1972246 -3.7995687 -3.7995687 -3.7995687 1.0 0.0 0.0 0.0
0.42594156 0.1392653 0.83170986 -10.556447 -2.1972246 -4.4217105 -4.4217105 -4.4217105 1.0 0.0 0.0 0.0
0.85514367 0.2801273 0.76678574 -62.02929 -2.1972246 -4.4136047 -4.4136047 -4.4136047 1.0 0.0 0.0 0.0
0.779966 0.7940575 0.66823167 -3.7384074 -2.1972246 -3.5526595 -3.5526595 -3.5526595 1.0 0.0 0.0 0.0
0.36667305 0.48578402 0.020196587 -65.84271 -2.1972246 -4.4923625 -4.4923625 -4.4923625 1.0 0.0 0.0 0.0
0.508183 0.07970637 0.7625489 -33.767048 -2.1972246 -4.689011 -4.689011 -4.689011 1.0 0.0 0.0 0.0
0.24957904 0.9226531 0.58272374 -3.4277232 -2.1972246 -4.261472 -4.261472 -4.261472 1.0 0.0 0.0 0.0
0.80779874 0.42055565 0.14621833 -77.02718 -2.1972246 -3.739582 -3.739582 -3.739582 1.0 0.0 0.0 0.0
0.789901 0.7025469 0.8198565 -3.370479 -2.1972246 -3.7296424 -3.7296424 -3.7296424 1.0 0.0 0.0 0.0
0.34790194 0.11062324 0.6393212 -7.0830545 -2.1972246 -3.5420759 -3.5420759 -3.5420759 1.0 0.0 0.0 0.0
0.5990583 0.19872856 0.13605595 -79.92673 -2.1972246 -3.8011749 -3.8011749 -3.8011749 1.0 0.0 0.0 0.0
0.9728983 0.40697598 0.40093318 -84.677986 -2.1972246 -3.8138661 -3.8138661 -3.8138661 1.0 0.0 0.0 0.0
0.82712007 0.21074763 0.46778148 -64.268456 -2.1972246 -3.4161615 -3.4161615 -3.4161615 1.0 0.0 0.0 0.0
0.6531069 0.043049783 0.45303816 -81.33353 -2.1972246 -3.9140491 -3.9140491 -3.9140491 1.0 0.0 0.0 0.0
0.48533005 0.1017085 0.56911016 -19.716055 -2.1972246 -3.8859289 -3.8859289 -3.8859289 1.0 0.0 0.0 0.0
0.23755059 0.45644116 0.107216686 -33.56492 -2.1972246 -3.7250443 -3.7250443 -3.7250443 1.0 0.0 0.0 0.0
0.70663935 0.37343413 0.8092576 -4.2143645 -2.1972246 -3.2882235 -3.2882235 -3.2882235 1.0 0.0 0.0 0.0
0.38441315 0.3813644 0.032470495 -70.636925 -2.1972246 -5.0070844 -5.0070844 -5.0070844 1.0 0.0 0.0 0.0
0.3709885 0.6836909 0.7277372 -3.255106 -2.1972246 -3.315169 -3.315169 -3.315169 1.0 0.0 0.0 0.0
0.8712122 0.17315865 0.53196687 -81.420105 -2.1972246 -4.6612062 -4.6612062 -4.6612062 1.0 0.0 0.0 0.0
0.2240642 0.34368432 0.45906878 -5.499354 -2.1972246 -3.0975132 -3.0975132 -3.0975132 1.0 0.0 0.0 0.0
0.6838205 0.37490848 0.6205839 -12.027489 -2.1972246 -3.3449345 -3.3449345 -3.3449345 1.0 0.0 0.0 0.0
0.15030247 0.74308854 0.2394962 -3.7557285 -2.1972246 -4.4731765 -4.4731765 -4.4731765 1.0 0.0 0.0 0.0
0.43499607 0.18708831 0.37038773 -23.671618 -2.1972246 -3.2749166 -3.2749166 -3.2749166 1.0 0.0 0.0 0.0
0.14882141 0.6363201 0.8276173 -5.0213957 -2.1972246 -3.6244245 -3.6244245 -3.6244245 1.0 0.0 0.0 0.0
0.99514776 0.5454374 0.5408455 -71.98405 -2.1972246 -5.19257 -5.19257 -5.19257 1.0 0.0 0.0 0.0
0.14943418 0.19759986 0.6141657 -5.807185 -2.1972246 -3.8226607 -3.8226607 -3.8226607 1.0 0.0 0.0 0.0
0.23179168 0.8593278 0.2846272 -4.0778885 -2.1972246 -4.24926 -4.24926 -4.24926 1.0 0.0 0.0 0.0
0.5321386 0.93569225 0.35811186 -4.11437 -2.1972246 -3.733574 -3.733574 -3.733574 1.0 0.0 0.0 0.0
0.18478066 0.18478066 0.7115904 -3.6223803 -2.1972246 -4.0206923 -4.0206923 -4.0206923 1.0 0.0 0.0 0.0
0.75554276 0.8909824 0.65914667 -4.045614 -2.1972246 -4.10086 -4.10086 -4.10086 1.0 0.0 0.0 0.0
0.6174045 0.87059677 0.767867 -2.5066862 -2.1972246 -3.5547183 -3.5547183 -3.5547183 1.0 0.0 0.0 0.0
0.1330894 0.6827425 0.32092187 -5.171565 -2.1972246 -3.4824326 -3.4824326 -3.4824326 1.0 0.0 0.0 0.0
0.40774336 0.08086121 0.4535184 -35.533756 -2.1972246 -3.3506339 -3.3506339 -3.3506339 1.0 0.0 0.0 0.0
0.8844408 0.26311457 0.70246494 -68.153275 -2.1972246 -4.3812027 -4.3812027 -4.3812027 1.0 0.0 0.0 0.0
0.66933197 0.8166641 0.84160817 -2.9385498 -2.1972246 -3.840328 -3.840328 -3.840328 1.0 0.0 0.0 0.0
0.94650245 0.5569929 0.32558757 -82.53759 -2.1972246 -3.5966847 -3.5966847 -3.5966847 1.0 0.0 0.0 0.0
0.9669715 0.66708505 0.5062257 -66.45486 -2.1972246 -4.7681804 -4.7681804 -4.7681804 1.0 0.0 0.0 0.0
0.5178124 0.41459668 0.46933585 -6.170341 -2.1972246 -3.8717194 -3.8717194 -3.8717194 1.0 0.0 0.0 0.0
0.1771285 0.28227925 0.71772075 -3.8116302 -2.1972246 -3.857417 -3.857417 -3.857417 1.0 0.0 0.0 0.0
0.5116135 0.2141898 0.25345844 -53.819744 -2.1972246 -3.2331307 -3.2331307 -3.2331307 1.0 0.0 0.0 0.0
0.5927066 0.71699405 0.93337744 -3.2336328 -2.1972246 -4.315174 -4.315174 -4.315174 1.0 0.0 0.0 0.0
0.7276969 0.83188236 0.47961035 -3.4892278 -2.1972246 -3.149105 -3.149105 -3.149105 1.0 0.0 0.0 0.0
0.7549783 0.35138255 0.10275903 -85.78036 -2.1972246 -4.431812 -4.431812 -4.431812 1.0 0.0 0.0 0.0
0.31005302 0.25338414 0.10871908 -71.04155 -2.1972246 -4.2775717 -4.2775717 -4.2775717 1.0 0.0 0.0 0.0
0.11809635 0.7385675 0.28519922 -3.730939 -2.1972246 -4.8541136 -4.8541136 -4.8541136 1.0 0.0 0.0 0.0
0.20325428 0.75597465 0.5440181 -3.1167593 -2.1972246 -3.4509766 -3.4509766 -3.4509766 1.0 0.0 0.0 0.0
0.73083204 0.06493828 0.5750156 -78.92385 -2.1972246 -4.096333 -4.096333 -4.096333 1.0 0.0 0.0 0.0
0.7182308 0.84462404 0.78343725 -1.7695346 -2.1972246 -3.9040124 -3.9040124 -3.9040124 1.0 0.0 0.0 0.0
0.81162083 0.2860759 0.82730556 -49.345997 -2.1972246 -3.8795202 -3.8795202 -3.8795202 1.0 0.0 0.0 0.0
0.28783292 0.9268859 0.36042708 -4.915304 -2.1972246 -4.549984 -4.549984 -4.549984 1.0 0.0 0.0 0.0
0.36973143 0.8887888 0.3554831 -7.417071 -2.1972246 -3.5848966 -3.5848966 -3.5848966 1.0 0.0 0.0 0.0
0.44363514 0.1032618 0.20705998 -82.29469 -2.1972246 -3.8430376 -3.8430376 -3.8430376 1.0 0.0 0.0 0.0
0.25017798 0.70328957 0.19294655 -6.0672917 -2.1972246 -3.5914996 -3.5914996 -3.5914996 1.0 0.0 0.0 0.0
0.60832936 0.73368883 0.82331085 -3.2798238 -2.1972246 -3.586676 -3.586676 -3.586676 1.0 0.0 0.0 0.0
0.60172445 0.6501352 0.9640054 -3.3846633 -2.1972246 -4.6162663 -4.6162663 -4.6162663 1.0 0.0 0.0 0.0
0.5365441 0.9683522 0.50574785 -2.963758 -2.1972246 -3.704694 -3.704694 -3.704694 1.0 0.0 0.0 0.0
0.6233617 0.60124034 0.47328028 -5.1412425 -2.1972246 -2.7658756 -2.7658756 -2.7658756 1.0 0.0 0.0 0.0
0.31902254 0.1511851 0.39257175 -15.039524 -2.1972246 -4.0671077 -4.0671077 -4.0671077 1.0 0.0 0.0 0.0
0.65988386 0.821015 0.23654976 -21.336246 -2.1972246 -3.8224182 -3.8224182 -3.8224182 1.0 0.0 0.0 0.0
0.546733 0.9693894 0.6556171 -3.704306 -2.1972246 -4.8428526 -4.8428526 -4.8428526 1.0 0.0 0.0 0.0
0.024157047 0.3869947 0.4244703 -3.1804142 -2.1972246 -4.586355 -4.586355 -4.586355 1.0 0.0 0.0 0.0
0.6390281 0.8885575 0.52387154 -5.1874385 -2.1972246 -3.5498285 -3.5498285 -3.5498285 1.0 0.0 0.0 0.0
0.28967983 0.05286643 0.46149516 -46.129745 -2.1972246 -3.6340015 -3.6340015 -3.6340015 1.0 0.0 0.0 0.0
0.2552777 0.93093 0.49252337 -5.5175843 -2.1972246 -4.7214813 -4.7214813 -4.7214813 1.0 0.0 0.0 0.0
0.83872455 0.185341 0.37409255 -78.631546 -2.1972246 -3.65092 -3.65092 -3.65092 1.0 0.0 0.0 0.0
0.113851994 0.5645649 0.18899986 -8.601052 -2.1972246 -4.048744 -4.048744 -4.048744 1.0 0.0 0.0 0.0
0.6725499 0.9392725 0.6571742 -2.0242784 -2.1972246 -4.7418604 -4.7418604 -4.7418604 1.0 0.0 0.0 0.0
0.8794603 0.32986903 0.31100708 -77.67014 -2.1972246 -3.5292294 -3.5292294 -3.5292294 1.0 0.0 0.0 0.0
0.8340814 0.17921788 0.53704894 -70.53067 -2.1972246 -3.4805982 -3.4805982 -3.4805982 1.0 0.0 0.0 0.0
0.37236 0.25401443 0.916172 -3.7693558 -2.1972246 -4.7227545 -4.7227545 -4.7227545 1.0 0.0 0.0 0.0
0.9236264 0.61443955 0.2790671 -83.27725 -2.1972246 -4.282313 -4.282313 -4.282313 1.0 0.0 0.0 0.0
0.15837681 0.22205165 0.38874653 -6.2327075 -2.1972246 -3.6135058 -3.6135058 -3.6135058 1.0 0.0 0.0 0.0
0.6009311 0.49448395 0.94946665 -3.49244 -2.1972246 -3.4763339 -3.4763339 -3.4763339 1.0 0.0 0.0 0.0
0.577489 0.79770416 0.88956356 -2.1077294 -2.1972246 -3.8495417 -3.8495417 -3.8495417 1.0 0.0 0.0 0.0
0.12933815 0.60748994 0.23208588 -3.9356747 -2.1972246 -3.5667999 -3.5667999 -3.5667999 1.0 0.0 0.0 0.0
0.46628246 0.9910637 0.57438284 -2.9273467 -2.1972246 -4.743537 -4.743537 -4.743537 1.0 0.0 0.0 0.0
0.6157492 0.112522036 0.50951207 -55.857265 -2.1972246 -3.274562 -3.274562 -3.274562 1.0 0.0 0.0 0.0
0.7918898 0.23167393 0.19748226 -89.0106 -2.1972246 -4.8045154 -4.8045154 -4.8045154 1.0 0.0 0.0 0.0
0.68532395 0.13182452 0.7765753 -52.436504 -2.1972246 -4.8212304 -4.8212304 -4.8212304 1.0 0.0 0.0 0.0
0.6179941 0.63431406 0.9650017 -2.5434165 -2.1972246 -4.363661 -4.363661 -4.363661 1.0 0.0 0.0 0.0
0.069123924 0.71029776 0.54428214 -1.6913888 -2.1972246 -3.806736 -3.806736 -3.806736 1.0 0.0 0.0 0.0
0.5735414 0.02435109 0.6227877 -64.04996 -2.1972246 -4.3873396 -4.3873396 -4.3873396 1.0 0.0 0.0 0.0
0.30151734 0.23912972 0.73443294 -5.700066 -2.1972246 -3.4461033 -3.4461033 -3.4461033 1.0 0.0 0.0 0.0
0.7950058 0.62027925 0.12032896 -83.279106 -2.1972246 -3.850833 -3.850833 -3.850833 1.0 0.0 0.0 0.0
0.37943408 0.16749024 0.6777302 -5.9179673 -2.1972246 -3.7440102 -3.7440102 -3.7440102 1.0 0.0 0.0 0.0
0.86219484 0.15727416 0.5367954 -81.99053 -2.1972246 -4.8426886 -4.8426886 -4.8426886 1.0 0.0 0.0 0.0
0.6508442 0.12691656 0.47850028 -57.712627 -2.1972246 -3.320076 -3.320076 -3.320076 1.0 0.0 0.0 0.0
0.2957099 0.40125048 0.6851578 -3.932042 -2.1972246 -3.342864 -3.342864 -3.342864 1.0 0.0 0.0 0.0
0.33287537 0.8478174 0.8075538 0.21234691 -2.1972246 -4.3892074 -4.3892074 -4.3892074 1.0 0.0 0.0 0.0
0.5575133 0.2200264 0.19109675 -61.68204 -2.1972246 -3.6115448 -3.6115448 -3.6115448 1.0 0.0 0.0 0.0
0.122942805 0.43539712 0.19055718 -15.965595 -2.1972246 -3.4530015 -3.4530015 -3.4530015 1.0 0.0 0.0 0.0
0.70657694 0.30384186 0.0917584 -89.0106 -2.1972246 -3.9842556 -3.9842556 -3.9842556 1.0 0.0 0.0 0.0
0.38073748 0.88724023 0.22481215 -6.1114635 -2.1972246 -3.6870904 -3.6870904 -3.6870904 1.0 0.0 0.0 0.0
0.69976753 0.9270462 0.40220064 -11.234905 -2.1972246 -3.8624525 -3.8624525 -3.8624525 1.0 0.0 0.0 0.0
0.21642163 0.60806596 0.8873055 -4.149665 -2.1972246 -4.5015464 -4.5015464 -4.5015464 1.0 0.0 0.0 0.0
0.5726243 0.71664745 0.94269526 -2.0293486 -2.1972246 -4.9689646 -4.9689646 -4.9689646 1.0 0.0 0.0 0.0
0.5454731 0.2332367 0.08995533 -82.9868 -2.1972246 -3.698459 -3.698459 -3.698459 1.0 0.0 0.0 0.0
0.8544162 0.7280208 0.7690645 -12.698123 -2.1972246 -4.611816 -4.611816 -4.611816 1.0 0.0 0.0 0.0
0.5855957 0.32151532 0.9543811 -5.032783 -2.1972246 -4.0620046 -4.0620046 -4.0620046 1.0 0.0 0.0 0.0
0.722525 0.70791864 0.8937838 -1.6798975 -2.1972246 -4.277152 -4.277152 -4.277152 1.0 0.0 0.0 0.0
0.4658067 0.9635475 0.67717814 -3.0703468 -2.1972246 -4.4586563 -4.4586563 -4.4586563 1.0 0.0 0.0 0.0
0.95836127 0.39114633 0.66083866 -67.17522 -2.1972246 -4.424252 -4.424252 -4.424252 1.0 0.0 0.0 0.0
0.66258883 0.53913105 0.9544054 -2.9068694 -2.1972246 -4.19837 -4.19837 -4.19837 1.0 0.0 0.0 0.0
0.672786 0.8066894 0.14598128 -64.873436 -2.1972246 -3.6972969 -3.6972969 -3.6972969 1.0 0.0 0.0 0.0
0.35580438 0.804876 0.8023027 -2.853784 -2.1972246 -3.712359 -3.712359 -3.712359 1.0 0.0 0.0 0.0
0.5402119 0.32455873 0.3064304 -31.934069 -2.1972246 -3.69254 -3.69254 -3.69254 1.0 0.0 0.0 0.0
0.19582298 0.14004922 0.36115164 -35.033955 -2.1972246 -3.8651104 -3.8651104 -3.8651104 1.0 0.0 0.0 0.0
0.21853924 0.102149904 0.4097738 -36.467228 -2.1972246 -4.00286 -4.00286 -4.00286 1.0 0.0 0.0 0.0
0.31323782 0.7012055 0.9100405 -2.8764517 -2.1972246 -3.6605382 -3.6605382 -3.6605382 1.0 0.0 0.0 0.0
0.3516374 0.8846156 0.4234952 -3.3235996 -2.1972246 -3.306347 -3.306347 -3.306347 1.0 0.0 0.0 0.0
0.29707474 0.9564859 0.47897795 -3.3390396 -2.1972246 -4.876258 -4.876258 -4.876258 1.0 0.0 0.0 0.0
0.47209248 0.53911775 0.04574904 -61.57094 -2.1972246 -3.6762688 -3.6762688 -3.6762688 1.0 0.0 0.0 0.0
0.45594132 0.5481162 0.9938959 -6.072222 -2.1972246 -3.9480176 -3.9480176 -3.9480176 1.0 0.0 0.0 0.0
0.20766193 0.8057523 0.25015795 -4.329398 -2.1972246 -4.198684 -4.198684 -4.198684 1.0 0.0 0.0 0.0
0.29662126 0.9550417 0.4781285 -3.2751148 -2.1972246 -4.977985 -4.977985 -4.977985 1.0 0.0 0.0 0.0
0.22656608 0.16392544 0.59147274 -3.890722 -2.1972246 -3.616259 -3.616259 -3.616259 1.0 0.0 0.0 0.0
0.6559352 0.58964336 0.89920014 -4.9682703 -2.1972246 -3.671891 -3.671891 -3.671891 1.0 0.0 0.0 0.0
0.7182186 0.44708923 0.9289892 -4.556586 -2.1972246 -3.7829945 -3.7829945 -3.7829945 1.0 0.0 0.0 0.0
0.81501657 0.26533148 0.7986506 -51.728745 -2.1972246 -4.0637336 -4.0637336 -4.0637336 1.0 0.0 0.0 0.0
0.86336267 0.24409115 0.34768292 -77.53828 -2.1972246 -3.6813836 -3.6813836 -3.6813836 1.0 0.0 0.0 0.0
0.29524052 0.9506872 0.44392818 -2.9873166 -2.1972246 -4.103049 -4.103049 -4.103049 1.0 0.0 0.0 0.0
0.15969816 0.13522461 0.53366864 -11.696162 -2.1972246 -3.4823833 -3.4823833 -3.4823833 1.0 0.0 0.0 0.0
0.297552 0.6531888 0.097804844 -22.900095 -2.1972246 -3.7567835 -3.7567835 -3.7567835 1.0 0.0 0.0 0.0
0.6018727 0.25405765 0.28784865 -45.89916 -2.1972246 -3.0424812 -3.0424812 -3.0424812 1.0 0.0 0.0 0.0
0.51897764 0.92285866 0.74644935 -2.0376816 -2.1972246 -3.8558779 -3.8558779 -3.8558779 1.0 0.0 0.0 0.0
0.6717908 0.792204 0.5312825 -5.5656543 -2.1972246 -3.3917034 -3.3917034 -3.3917034 1.0 0.0 0.0 0.0
0.31620264 0.81536007 0.22114623 -5.3801813 -2.1972246 -3.7493322 -3.7493322 -3.7493322 1.0 0.0 0.0 0.0
0.43071026 0.4393852 0.99145174 -2.8599634 -2.1972246 -4.156153 -4.156153 -4.156153 1.0 0.0 0.0 0.0
0.112935305 0.53812253 0.46979854 -5.2170033 -2.1972246 -3.4620202 -3.4620202 -3.4620202 1.0 0.0 0.0 0.0
0.32941464 0.20730907 0.7675477 -5.0320377 -2.1972246 -3.6841264 -3.6841264 -3.6841264 1.0 0.0 0.0 0.0
0.6518109 0.85311425 0.8129048 -3.600871 -2.1972246 -4.5823054 -4.5823054 -4.5823054 1.0 0.0 0.0 0.0
0.67302126 0.94184756 0.6504911 -2.413185 -2.1972246 -4.4221997 -4.4221997 -4.4221997 1.0 0.0 0.0 0.0
0.5210057 0.023024768 0.6409491 -59.833218 -2.1972246 -4.79191 -4.79191 -4.79191 1.0 0.0 0.0 0.0
0.7750206 0.34998763 0.461584 -40.836105 -2.1972246 -3.0756385 -3.0756385 -3.0756385 1.0 0.0 0.0 0.0
0.45259216 0.24158755 0.91937685 -3.934912 -2.1972246 -4.0708523 -4.0708523 -4.0708523 1.0 0.0 0.0 0.0
0.46307418 0.46611762 0.99346435 -3.1317852 -2.1972246 -4.796284 -4.796284 -4.796284 1.0 0.0 0.0 0.0
0.54086393 0.9865885 0.57112515 -3.199326 -2.1972246 -4.6462326 -4.6462326 -4.6462326 1.0 0.0 0.0 0.0
0.9339068 0.56436396 0.26463762 -84.93306 -2.1972246 -3.836359 -3.836359 -3.836359 1.0 0.0 0.0 0.0
0.8305085 0.1694915 0.67756194 -75.06663 -2.1972246 -3.8979485 -3.8979485 -3.8979485 1.0 0.0 0.0 0.0
0.2910493 0.15799454 0.45781764 -6.89154 -2.1972246 -3.444241 -3.444241 -3.444241 1.0 0.0 0.0 0.0
0.295083 0.15480739 0.53547627 -7.246287 -2.1972246 -3.546884 -3.546884 -3.546884 1.0 0.0 0.0 0.0
0.7869421 0.6579312 0.2503533 -58.769875 -2.1972246 -3.4798284 -3.4798284 -3.4798284 1.0 0.0 0.0 0.0
0.088147104 0.22844917 0.423319 -8.343283 -2.1972246 -3.5132217 -3.5132217 -3.5132217 1.0 0.0 0.0 0.0
0.16983774 0.18565938 0.6227248 -4.2316566 -2.1972246 -3.6885042 -3.6885042 -3.6885042 1.0 0.0 0.0 0.0
0.6265401 0.464901 0.949832 -3.7117372 -2.1972246 -3.430221 -3.430221 -3.430221 1.0 0.0 0.0 0.0
0.5307402 0.98361295 0.4068845 -3.2209413 -2.1972246 -4.11509 -4.11509 -4.11509 1.0 0.0 0.0 0.0
0.5937276 0.08261201 0.29211694 -79.20472 -2.1972246 -3.5463 -3.5463 -3.5463 1.0 0.0 0.0 0.0
0.5588329 0.091459125 0.27084604 -77.0433 -2.1972246 -3.2837844 -3.2837844 -3.2837844 1.0 0.0 0.0 0.0
0.6946254 0.768844 0.869555 -2.8062017 -2.1972246 -4.3304443 -4.3304443 -4.3304443 1.0 0.0 0.0 0.0
0.11781952 0.46708858 0.23083812 -5.2642536 -2.1972246 -3.7681668 -3.7681668 -3.7681668 1.0 0.0 0.0 0.0
0.9954963 0.4817498 0.47671023 -79.77722 -2.1972246 -4.2209487 -4.2209487 -4.2209487 1.0 0.0 0.0 0.0
0.36513156 0.90536666 0.25022042 -4.9647408 -2.1972246 -3.9606898 -3.9606898 -3.9606898 1.0 0.0 0.0 0.0
0.9029944 0.5957049 0.22713625 -82.992004 -2.1972246 -4.2130933 -4.2130933 -4.2130933 1.0 0.0 0.0 0.0
0.79422426 0.5119062 0.90184546 -9.9868765 -2.1972246 -4.7357 -4.7357 -4.7357 1.0 0.0 0.0 0.0
0.005236417 0.506072 0.4604503 -3.534315 -2.1972246 -3.470874 -3.470874 -3.470874 1.0 0.0 0.0 0.0
0.26222873 0.77801657 0.68576473 -4.0463176 -2.1972246 -3.5665178 -3.5665178 -3.5665178 1.0 0.0 0.0 0.0
0.53199226 0.90022063 0.7831378 -1.9291289 -2.1972246 -4.1720705 -4.1720705 -4.1720705 1.0 0.0 0.0 0.0
0.77345556 0.6818799 0.8726511 -4.1249633 -2.1972246 -4.2619824 -4.2619824 -4.2619824 1.0 0.0 0.0 0.0
0.23121274 0.82681155 0.23570502 -3.9437091 -2.1972246 -4.7356353 -4.7356353 -4.7356353 1.0 0.0 0.0 0.0
0.439948 0.8460883 0.79598904 -1.311786 -2.1972246 -3.573487 -3.573487 -3.573487 1.0 0.0 0.0 0.0
0.8109255 0.7659163 0.3529432 -30.57783 -2.1972246 -3.799772 -3.799772 -3.799772 1.0 0.0 0.0 0.0
0.24928546 0.8543898 0.2683739 -4.508411 -2.1972246 -4.6620784 -4.6620784 -4.6620784 1.0 0.0 0.0 0.0
0.7458664 0.85226524 0.6902135 -3.2630186 -2.1972246 -3.8183901 -3.8183901 -3.8183901 1.0 0.0 0.0 0.0
0.6967604 0.28926468 0.09686035 -89.34707 -2.1972246 -4.104195 -4.104195 -4.104195 1.0 0.0 0.0 0.0
0.6669369 0.053792864 0.35562366 -85.8751 -2.1972246 -3.9998763 -3.9998763 -3.9998763 1.0 0.0 0.0 0.0
0.8418411 0.843945 0.39756918 -48.72 -2.1972246 -4.7750497 -4.7750497 -4.7750497 1.0 0.0 0.0 0.0
0.7507694 0.15305799 0.5412993 -62.28221 -2.1972246 -3.8405728 -3.8405728 -3.8405728 1.0 0.0 0.0 0.0
0.20340216 0.23346022 0.43207508 -4.1808777 -2.1972246 -3.2909417 -3.2909417 -3.2909417 1.0 0.0 0.0 0.0
0.028114676 0.37871698 0.40509623 -2.760529 -2.1972246 -4.224426 -4.224426 -4.224426 1.0 0.0 0.0 0.0
0.14811313 0.5835677 0.8336054 -2.502395 -2.1972246 -4.2293897 -4.2293897 -4.2293897 1.0 0.0 0.0 0.0
0.10980341 0.55177635 0.19228771 -8.742346 -2.1972246 -4.2409663 -4.2409663 -4.2409663 1.0 0.0 0.0 0.0
0.7403588 0.1880813 0.19188583 -86.82937 -2.1972246 -4.754953 -4.754953 -4.754953 1.0 0.0 0.0 0.0
0.79600513 0.30540448 0.85178995 -38.293007 -2.1972246 -3.9089642 -3.9089642 -3.9089642 1.0 0.0 0.0 0.0
0.841499 0.32116988 0.4493434 -55.830414 -2.1972246 -3.2781062 -3.2781062 -3.2781062 1.0 0.0 0.0 0.0
0.4680341 0.16768888 0.8712009 -9.032642 -2.1972246 -3.7048388 -3.7048388 -3.7048388 1.0 0.0 0.0 0.0
0.26179135 0.4744981 0.7054802 -1.8954399 -2.1972246 -3.07434 -3.07434 -3.07434 1.0 0.0 0.0 0.0
0.32848933 0.6697662 0.17912611 -5.5583835 -2.1972246 -3.5263438 -3.5263438 -3.5263438 1.0 0.0 0.0 0.0
0.82770145 0.6658223 0.8263155 -7.3553667 -2.1972246 -4.2022743 -4.2022743 -4.2022743 1.0 0.0 0.0 0.0
0.38485447 0.71542215 0.38485447 -8.282791 -2.1972246 -3.5197806 -3.5197806 -3.5197806 1.0 0.0 0.0 0.0
0.26472396 0.8887882 0.54628056 -2.3644528 -2.1972246 -3.4096785 -3.4096785 -3.4096785 1.0 0.0 0.0 0.0
0.4390357 0.61446077 0.9488733 -3.3300724 -2.1972246 -3.545995 -3.545995 -3.545995 1.0 0.0 0.0 0.0
0.31358314 0.9348776 0.6616485 -2.3503292 -2.1972246 -4.4774632 -4.4774632 -4.4774632 1.0 0.0 0.0 0.0
0.84083045 0.44234717 0.67155963 -14.860436 -2.1972246 -3.3915477 -3.3915477 -3.3915477 1.0 0.0 0.0 0.0
0.666599 0.043242216 0.59816146 -72.16316 -2.1972246 -4.751102 -4.751102 -4.751102 1.0 0.0 0.0 0.0
0.21937284 0.8649749 0.30778676 -4.0156875 -2.1972246 -3.9609683 -3.9609683 -3.9609683 1.0 0.0 0.0 0.0
0.17851132 0.7259087 0.19079083 -6.375772 -2.1972246 -4.4513993 -4.4513993 -4.4513993 1.0 0.0 0.0 0.0
0.494704 0.06846422 0.26367533 -83.38813 -2.1972246 -3.823197 -3.823197 -3.823197 1.0 0.0 0.0 0.0
0.5945967 0.122348934 0.29607886 -67.1502 -2.1972246 -4.3089848 -4.3089848 -4.3089848 1.0 0.0 0.0 0.0
0.4470034 0.7787721 0.9090119 -2.7631953 -2.1972246 -4.636197 -4.636197 -4.636197 1.0 0.0 0.0 0.0
0.8642893 0.27243584 0.2512031 -87.73763 -2.1972246 -4.2505455 -4.2505455 -4.2505455 1.0 0.0 0.0 0.0
0.46981463 0.06570727 0.28803465 -80.74933 -2.1972246 -4.244085 -4.244085 -4.244085 1.0 0.0 0.0 0.0
0.74143255 0.90846884 0.6518321 -3.5817945 -2.1972246 -4.203714 -4.203714 -4.203714 1.0 0.0 0.0 0.0
0.5623615 0.82060766 0.7653978 -4.4668436 -2.1972246 -3.5455847 -3.5455847 -3.5455847 1.0 0.0 0.0 0.0
0.16905403 0.7908311 0.2674457 -4.680887 -2.1972246 -4.329498 -4.329498 -4.329498 1.0 0.0 0.0 0.0
0.8698436 0.40569144 0.77187276 -33.52044 -2.1972246 -3.9987755 -3.9987755 -3.9987755 1.0 0.0 0.0 0.0
0.2608135 0.6203964 0.44628888 -5.665848 -2.1972246 -3.3480191 -3.3480191 -3.3480191 1.0 0.0 0.0 0.0
0.4391135 0.16309574 0.85536647 -7.720676 -2.1972246 -4.8041534 -4.8041534 -4.8041534 1.0 0.0 0.0 0.0
0.5040539 0.20765749 0.10072455 -83.92036 -2.1972246 -4.0357294 -4.0357294 -4.0357294 1.0 0.0 0.0 0.0
0.92811775 0.51232535 0.6472822 -40.68779 -2.1972246 -3.641964 -3.641964 -3.641964 1.0 0.0 0.0 0.0
0.55002576 0.26315868 0.1723277 -57.199356 -2.1972246 -3.5618925 -3.5618925 -3.5618925 1.0 0.0 0.0 0.0
0.41383386 0.7952013 0.86282855 -2.062979 -2.1972246 -3.9472306 -3.9472306 -3.9472306 1.0 0.0 0.0 0.0
0.6215431 0.32843322 0.86274743 -3.3738089 -2.1972246 -3.4732845 -3.4732845 -3.4732845 1.0 0.0 0.0 0.0
0.39310938 0.48237494 0.10727966 -32.50422 -2.1972246 -4.0647163 -4.0647163 -4.0647163 1.0 0.0 0.0 0.0
0.85879695 0.7871615 0.3030153 -68.47365 -2.1972246 -4.2668223 -4.2668223 -4.2668223 1.0 0.0 0.0 0.0
0.13219577 0.56382006 0.6132766 -1.9073046 -2.1972246 -3.3620071 -3.3620071 -3.3620071 1.0 0.0 0.0 0.0
0.8757616 0.5945466 0.8090465 -20.833445 -2.1972246 -4.6488714 -4.6488714 -4.6488714 1.0 0.0 0.0 0.0
0.17660257 0.4663831 0.14318591 -20.576046 -2.1972246 -3.7390904 -3.7390904 -3.7390904 1.0 0.0 0.0 0.0
0.46080872 0.48929793 0.5198141 -6.455087 -2.1972246 -4.071954 -4.071954 -4.071954 1.0 0.0 0.0 0.0
0.5929061 0.09587771 0.77543944 -41.88642 -2.1972246 -4.1086183 -4.1086183 -4.1086183 1.0 0.0 0.0 0.0
0.2888638 0.95233685 0.479169 -4.0350924 -2.1972246 -4.9366755 -4.9366755 -4.9366755 1.0 0.0 0.0 0.0
0.42526805 0.67427295 0.83279645 -3.3937228 -2.1972246 -3.433464 -3.433464 -3.433464 1.0 0.0 0.0 0.0
0.05865568 0.61922586 0.30759692 -3.2189803 -2.1972246 -4.8378935 -4.8378935 -4.8378935 1.0 0.0 0.0 0.0
0.7424584 0.51744956 0.17308265 -57.211006 -2.1972246 -3.5694842 -3.5694842 -3.5694842 1.0 0.0 0.0 0.0
0.91479206 0.30596483 0.3852116 -79.80718 -2.1972246 -3.3919663 -3.3919663 -3.3919663 1.0 0.0 0.0 0.0
0.71050733 0.12572983 0.2460064 -87.86546 -2.1972246 -4.546074 -4.546074 -4.546074 1.0 0.0 0.0 0.0
0.43606192 0.68947536 0.95349383 -2.9732418 -2.1972246 -4.3018093 -4.3018093 -4.3018093 1.0 0.0 0.0 0.0
0.07116404 0.6654203 0.3088218 -4.2295256 -2.1972246 -4.1846867 -4.1846867 -4.1846867 1.0 0.0 0.0 0.0
0.4328851 0.8281082 0.13952649 -23.916567 -2.1972246 -3.846345 -3.846345 -3.846345 1.0 0.0 0.0 0.0
0.5531378 0.4863851 0.99296 -4.6181393 -2.1972246 -4.6291103 -4.6291103 -4.6291103 1.0 0.0 0.0 0.0
0.38730764 0.5115333 0.09939474 -30.252638 -2.1972246 -4.1037474 -4.1037474 -4.1037474 1.0 0.0 0.0 0.0
0.95966166 0.61513925 0.47741827 -65.40551 -2.1972246 -3.713958 -3.713958 -3.713958 1.0 0.0 0.0 0.0
0.77870715 0.6253679 0.10426623 -83.63731 -2.1972246 -4.0260963 -4.0260963 -4.0260963 1.0 0.0 0.0 0.0
0.23216918 0.12945336 0.6893761 -5.9963408 -2.1972246 -3.9248593 -3.9248593 -3.9248593 1.0 0.0 0.0 0.0
0.06160614 0.3246827 0.38067797 -5.213211 -2.1972246 -3.8401825 -3.8401825 -3.8401825 1.0 0.0 0.0 0.0
0.21205884 0.29972935 0.14471954 -54.671555 -2.1972246 -3.763497 -3.763497 -3.763497 1.0 0.0 0.0 0.0
0.7232145 0.38805407 0.89795184 -5.538329 -2.1972246 -3.4617984 -3.4617984 -3.4617984 1.0 0.0 0.0 0.0
0.5824507 0.9692694 0.6392127 -4.392636 -2.1972246 -4.2664766 -4.2664766 -4.2664766 1.0 0.0 0.0 0.0
0.07523456 0.6540172 0.46866742 -3.6786427 -2.1972246 -3.3599913 -3.3599913 -3.3599913 1.0 0.0 0.0 0.0
0.67103654 0.21736607 0.7458985 -11.750221 -2.1972246 -3.6180277 -3.6180277 -3.6180277 1.0 0.0 0.0 0.0
0.7000107 0.05249402 0.5890145 -76.14076 -2.1972246 -4.3439455 -4.3439455 -4.3439455 1.0 0.0 0.0 0.0
0.6387208 0.46573332 0.02164346 -85.242775 -2.1972246 -3.9962 -3.9962 -3.9962 1.0 0.0 0.0 0.0
0.58240914 0.9896804 0.54822934 -1.7284197 -2.1972246 -4.2056236 -4.2056236 -4.2056236 1.0 0.0 0.0 0.0
0.42751446 0.64481795 0.96882 -4.1850634 -2.1972246 -3.9138854 -3.9138854 -3.9138854 1.0 0.0 0.0 0.0
0.60349685 0.25130183 0.9169289 -9.542248 -2.1972246 -3.7254958 -3.7254958 -3.7254958 1.0 0.0 0.0 0.0
0.19036108 0.25835544 0.62382716 -4.914357 -2.1972246 -3.4895813 -3.4895813 -3.4895813 1.0 0.0 0.0 0.0
0.8438754 0.6691436 0.8194439 -10.978608 -2.1972246 -4.175043 -4.175043 -4.175043 1.0 0.0 0.0 0.0
0.6395787 0.7002349 0.93594134 -1.8590462 -2.1972246 -4.365009 -4.365009 -4.365009 1.0 0.0 0.0 0.0
0.55759555 0.99179196 0.47834176 -3.9360282 -2.1972246 -3.8846474 -3.8846474 -3.8846474 1.0 0.0 0.0 0.0
0.8714474 0.5504486 0.6520175 -13.667157 -2.1972246 -3.3728728 -3.3728728 -3.3728728 1.0 0.0 0.0 0.0
0.2697945 0.3263806 0.76687217 -5.9944687 -2.1972246 -3.4486344 -3.4486344 -3.4486344 1.0 0.0 0.0 0.0
0.965706 0.46614352 0.6736696 -62.579327 -2.1972246 -4.710866 -4.710866 -4.710866 1.0 0.0 0.0 0.0
0.5929314 0.35334915 0.035375595 -85.32172 -2.1972246 -5.0225515 -5.0225515 -5.0225515 1.0 0.0 0.0 0.0
0.9861934 0.55693984 0.601852 -65.599396 -2.1972246 -3.9932833 -3.9932833 -3.9932833 1.0 0.0 0.0 0.0
0.5246167 0.88155675 0.8170734 -3.137036 -2.1972246 -4.6041336 -4.6041336 -4.6041336 1.0 0.0 0.0 0.0
0.41834962 0.0759334 0.74541354 -23.43944 -2.1972246 -5.0935173 -5.0935173 -5.0935173 1.0 0.0 0.0 0.0
