ply
format ascii 1.0
element vertex 354
property float x
property float y
property float z
property float value
property float weight
property float scale_0
property float scale_1
property float scale_2
property float rot_0
property float rot_1
property float rot_2
property float rot_3
end_header
0.20453292 0.3168843 0.75147796 -1.6594652 0.32148075 -4.221432 -4.161415 -4.3462577 0.9564958 -0.037841115 0.02767847 0.012007316
0.20520937 0.008570572 0.80917746 0.18220904 -1.76895 -4.2688284 -4.3344603 -4.336101 0.9723987 0.007886632 -0.013656531 -0.0065615103
0.053627405 0.21127453 0.9650175 0.10563493 -0.99444777 -3.6347976 -3.6215527 -3.6347568 0.9705149 -0.008730369 0.018125514 0.009788514
0.19564445 0.21065281 0.7162734 -1.4925941 -0.16503409 -3.7437096 -3.6715147 -3.649701 0.8963661 -0.040520314 0.08691226 -0.030178487
0.23004256 0.13134831 0.9345043 0.42880479 -1.4594934 -3.6437523 -3.6758718 -3.682796 0.99312323 0.0031651468 0.0031435378 -0.0045107245
0.23376222 0.24881634 0.9173469 -0.10127086 -0.2586652 -3.9453435 -3.8700216 -4.150122 0.9315853 0.019720314 0.05665155 0.014669888
0.10442819 0.07269262 0.61142147 -1.5470366 -0.75439197 -4.076273 -4.257625 -4.1434035 0.84960365 0.11536141 -0.05924833 0.071521156
0.18366036 0.40410748 0.25209135 -1.0106384 -0.039465908 -3.3944247 -3.5247402 -3.3994384 0.9854099 -0.0084285475 0.012081999 -0.0112906555
0.06873061 0.006642932 0.4912838 -1.1080532 0.09466967 -3.9198608 -4.1518674 -4.0489206 0.9862143 -0.004648191 0.0063556507 0.009623153
0.04083292 0.20332676 0.8316906 -0.8283266 -1.7934368 -3.6907601 -3.7632203 -3.7806249 0.9587701 0.014755522 0.024497183 -0.026891189
0.14988543 0.29540807 0.2405978 -1.2292564 -2.6245522 -4.051441 -3.9679403 -3.9378517 0.95249164 -0.0042095403 -0.018926334 0.059153482
0.04809329 0.31200254 0.721769 -2.1460521 -0.6703252 -3.4701898 -3.465666 -3.6285071 0.97445756 -0.010565474 -0.010923807 0.047792993
0.0744942 0.49006993 0.74849516 -1.171138 -1.0621331 -3.3746686 -3.3091235 -3.39611 0.9862148 -0.00943913 -0.0037001125 -0.006738636
0.13742523 0.24226907 0.6764674 -3.0444243 -0.84900457 -3.8290262 -3.7723343 -3.6844368 0.9441277 -0.059439406 0.006649226 0.042792764
0.16821234 0.018595917 0.9887317 1.9488814 0.6869707 -3.9131453 -4.0367575 -4.193737 0.85371846 0.0014262226 0.035107106 -0.029909944
0.22993074 0.27971238 0.7074774 -1.7456446 0.014847948 -3.64819 -3.5364802 -3.583564 0.9920339 -0.0045314897 0.0148423845 -0.00042336693
0.16898496 0.34778222 0.92031103 -0.19822131 -1.049952 -3.4807448 -3.5829303 -3.5276656 0.9829878 -0.01078181 0.014064908 -0.0014918442
0.18754226 0.20866066 0.3288604 -1.6666777 -3.6169114 -3.6241062 -3.706547 -3.741322 0.99592936 -0.0056468355 0.0015351825 0.00220415
0.08719807 0.5617816 0.6666356 -1.5015774 -0.7575771 -3.8495662 -3.8309693 -3.9638195 0.96589744 0.04148113 0.01339486 0.0045867213
0.05099106 0.26575026 0.3927391 -3.1527162 0.6065286 -3.9732807 -3.8703618 -4.0968676 0.8879941 -0.06462711 -0.01653232 -0.036460962
0.007967114 0.169322 0.77148956 -0.88566506 0.16548975 -4.0644464 -3.9498332 -4.046374 0.88621163 0.056810066 -0.082764626 -0.03582284
0.008861243 0.043828927 0.61757416 -1.2222608 0.07473636 -3.962528 -4.000019 -4.0224423 0.9804965 0.011970906 0.014976355 0.0011511382
0.18310164 0.5899199 0.78487897 -0.6081085 -1.8899575 -3.6831694 -3.590099 -3.6401155 0.98783344 -0.0012754245 -0.013771148 -0.012266622
0.22966266 0.45320842 0.8752558 -0.12927707 -0.63541937 -3.8154416 -3.759999 -3.7045517 0.97229105 -0.0110222045 0.010924208 -0.018789494
0.07147049 0.1409554 0.8256801 -0.6757191 -0.7225905 -3.88576 -3.8561525 -4.0072594 0.9959257 4.088893e-05 0.0019388518 0.0075124423
0.053223778 0.2830194 0.19928102 -0.47122562 -1.0237583 -3.63624 -3.6071677 -3.6951303 0.8822051 -0.103651576 0.027329886 0.05658484
0.2125487 0.20302975 0.15839167 -0.40959233 -0.25766927 -3.7468348 -3.862221 -3.7608216 0.98576343 5.3773398e-05 -0.0122969905 0.0057136174
0.013827087 0.062849015 0.88708156 0.1692902 -1.5752921 -3.770687 -3.83641 -3.9253619 0.90378916 0.08001091 0.030652402 0.0055275406
0.081928276 0.44700727 0.6906445 -1.7533418 -1.5969388 -3.7981474 -3.8613076 -3.844321 0.93828005 0.0043590106 -0.0026029635 -0.034829143
0.20357816 0.08136043 0.8218032 -0.23816323 -2.406749 -3.6470468 -3.7597384 -3.6860898 0.99372566 0.0039185034 -0.0077536446 -0.007628666
0.062352963 0.5455736 0.82064736 -0.3084145 0.63827693 -3.7040951 -3.7082307 -3.8273156 0.88638747 -0.074177705 0.024577837 -0.05024271
0.058056537 0.11983958 0.27662924 -0.9436992 0.8284246 -3.876591 -3.6904144 -3.964463 0.84775764 -0.07204519 -0.009348819 0.08639664
0.20242603 0.28780174 0.9702152 0.7152768 -1.8755875 -3.7489786 -3.7180512 -3.7567837 0.99006677 -0.005346886 -0.008470153 0.010756678
0.23066223 0.10058902 0.72016674 -1.049372 3.1621978 -4.145024 -4.337108 -4.2904987 0.9619626 -0.009780288 -0.046251427 -0.0068098838
0.18295814 0.06877328 0.75184727 -0.50909495 -1.6610596 -3.4540632 -3.5185573 -3.4816177 0.98681736 0.01498215 -0.009318067 -0.00047863272
0.07195273 0.08333212 0.83000934 -0.3206589 -0.7112115 -3.714517 -3.7706673 -3.742196 0.96817076 -0.020429656 -0.012498092 -0.029256672
0.11561793 0.28951538 0.3314189 -2.4896638 -1.4697374 -3.602142 -3.5930083 -3.5955646 1.0020572 -0.0009471759 -0.0028152557 0.00029354365
0.1801171 0.5143115 0.99002504 1.4691832 -1.5847577 -3.8627787 -3.8006418 -3.9337273 0.8997153 -0.0065781474 -0.095014386 0.054686267
0.12234499 0.2805666 0.8956142 -0.42597008 0.11402982 -3.492608 -3.4020734 -3.4128642 0.8996224 -0.0013942141 -0.117492646 0.043251496
0.14337876 0.62272155 0.81420785 -0.26536113 -1.9234787 -4.34265 -4.3429933 -4.405754 0.97665447 0.007883208 -0.02446982 -0.009873034
0.14020424 0.053816862 0.99975526 2.0622492 -1.8643076 -3.7678726 -3.825212 -3.8683283 0.9656107 0.0073727435 0.011939592 -0.009001574
0.007518635 0.18059808 0.5820242 -1.9682587 -2.0945363 -3.7983003 -3.7383885 -3.6584218 0.9028106 -0.026371423 0.005492005 -0.10108032
0.12200298 0.2492116 0.96679044 0.087375514 0.318329 -3.4489274 -3.6857727 -3.7166855 0.9186287 0.0008870863 0.06421677 -0.0054137222
0.13402754 0.13539793 0.21669646 -0.5513195 0.7649141 -3.7205024 -3.687727 -3.9214044 0.9901906 0.009472447 0.0065502925 -0.00012621493
0.050326318 0.022881981 0.8041774 0.27422562 -0.1185294 -3.6549416 -3.6872065 -3.5877726 0.9693252 -0.022723593 -0.010621058 -0.014229105
0.2212962 0.42300412 0.8037325 -1.1374525 0.13957323 -3.90844 -3.927864 -3.9971569 0.96538484 0.08095157 0.028716091 0.0064705904
0.04787566 0.6209122 0.87816036 0.54520226 1.1957285 -3.9422307 -3.9781103 -4.00834 0.96943915 0.0007727839 0.022771608 0.006177127
0.20091832 0.15948983 0.11566308 0.46816772 -0.6987331 -3.6413603 -3.7151506 -3.7894125 0.9864795 0.009718035 -0.010480161 -0.012537593
0.008380709 0.5686384 0.8685913 0.48322517 -1.3244625 -3.955035 -3.8213909 -3.8746486 0.9749703 -0.008338902 0.01921984 -0.015553081
0.08122817 0.37601465 0.2664785 -1.4022142 -0.16908336 -3.7135537 -3.6962235 -3.7610743 0.98871106 0.012871828 0.0008500167 -0.023271505
0.13689199 0.3634687 0.3674451 -2.7682025 -2.0820272 -3.578987 -3.6629095 -3.6840262 0.9824165 -0.04736868 -0.00033048584 0.005629757
0.029452216 0.30299968 0.90803826 -0.2808681 1.9575865 -3.9036465 -3.842698 -3.9165983 0.9627631 0.021418044 0.020480387 -0.030635994
0.027948555 0.3732302 0.8520512 -1.001419 -0.4920119 -3.7258096 -3.7445855 -3.643917 0.957278 0.038556136 0.00846257 -0.021551382
0.10156109 0.5470184 0.72241753 -0.9308068 -0.6744128 -3.9600844 -4.060512 -3.9754288 0.9684048 0.01260215 0.031598262 -0.009437923
0.018041408 0.049611565 0.6552069 -0.84011966 -1.5549775 -3.395866 -3.4295802 -3.4150689 0.9893112 -0.010950289 0.010475153 -0.0060418616
0.107890256 0.14903416 0.74553055 -1.0435376 -0.33962318 -3.3002331 -3.3378098 -3.4068174 0.99810123 0.004673977 -0.0018561054 -0.0007429369
0.14085118 0.32974458 0.7023035 -2.6814687 -1.303411 -3.702869 -3.6215506 -3.6804724 0.9931817 0.002921174 0.0021443476 -0.0075965
0.17287163 0.33427224 0.33657533 -2.0720592 0.6794975 -3.7516072 -3.6454737 -3.73955 0.9802249 -0.009848981 -0.018479072 0.0057600564
0.1678417 0.16747843 0.21351874 -0.34627914 -0.69834 -3.990184 -3.9419448 -4.0948625 0.8770174 -0.09040465 -0.0024938222 0.000388277
0.039778195 0.52354866 0.8898639 0.31923276 -1.5301325 -3.745174 -3.6688762 -3.8176415 0.9290167 0.025580734 0.05405572 0.060699485
0.12722665 0.19524851 0.7249245 -1.4607177 -0.49651057 -3.4250083 -3.3989935 -3.3172655 0.99375445 -0.0027738728 -0.0058426 -0.006611524
0.015293902 0.6220016 0.7318485 -0.4414643 -1.5003488 -4.045897 -4.025254 -3.959792 0.98871756 -0.009292436 0.008638015 -0.0095329415
0.030037658 0.5042068 0.67330575 -1.4901496 2.2645795 -3.7521565 -3.6688826 -3.6977158 0.9808187 0.0061366498 -0.020617027 0.0016156062
0.1222985 0.27948844 0.912819 -0.32864535 0.1263762 -3.7322178 -3.5679522 -3.837885 0.9845805 -0.015398204 -0.026817935 -0.0043940223
0.24246587 0.33653608 0.23588757 -0.8402173 -1.2996234 -4.240712 -3.9801686 -4.1081014 0.84997815 0.034279086 -0.089020565 -0.11536884
0.13017946 0.1779565 0.9680963 0.39094126 -0.18160158 -3.939408 -3.8882303 -3.8064368 0.99359185 0.0041822474 -0.00041541568 -0.006119305
0.16926163 0.63637614 0.88839775 1.1422989 -1.7461398 -3.8251739 -3.96954 -4.0173197 0.84178495 -0.0073031057 0.070661634 0.097315006
0.13581349 0.4091969 1.0025933 0.7363244 -3.5099106 -3.6590438 -3.709261 -3.7490284 0.9900866 -0.009894717 0.0034971088 -0.008373223
0.13047802 0.41789374 0.48904684 -5.695153 -0.116443515 -3.6544077 -3.6595685 -3.4409907 0.883799 -0.10571714 -0.003980317 0.015626132
0.078141406 0.09317993 0.19437757 0.13435224 -1.8561498 -3.7585578 -3.7618093 -3.7064328 0.9756679 -0.016259883 -0.013497933 -0.0020987655
0.23806803 0.34877667 0.7188881 -1.6862489 -1.8493724 -3.4391193 -3.3984616 -3.3724926 0.99618584 0.0038195825 0.005451299 -0.00033855886
0.0675711 0.34837645 0.7652318 -1.8476031 0.4918269 -3.7139802 -3.7455845 -3.8385699 0.9906201 -0.014299251 0.0016630915 -0.0068478603
0.0062657814 0.015779804 0.5359738 -0.6440096 -2.37196 -3.6520195 -3.5962274 -3.5469809 0.9923053 0.012188458 -0.0021369567 0.0045550135
0.04770124 0.1203986 0.2779615 -0.9743474 1.79785 -3.818818 -3.8217785 -3.957857 0.9329105 -0.022543965 -0.046240933 0.013020847
0.101202205 0.40341336 0.70750093 -2.5308907 -0.0075269234 -4.0298085 -4.0606585 -4.0308704 0.9815312 0.014455593 0.013664445 0.016227957
0.09966531 0.5899895 0.7335583 -0.95227 -0.6441606 -3.931961 -3.9345877 -4.0450277 0.90969306 0.10137001 -0.05082008 0.033925615
0.16865845 0.14530995 0.64665484 -2.3237255 -1.8951167 -3.7811084 -3.7300062 -3.8688276 0.88891536 0.07739806 -0.00655605 0.038754035
0.16934054 0.20836563 0.28205797 -1.1334052 -0.91262263 -3.6077695 -3.5680838 -3.3952324 0.8890465 -0.021643033 0.055874135 0.015877742
0.012265401 0.528957 0.75884646 -0.48069638 -1.1311411 -3.778471 -3.645883 -3.7621293 0.9699734 0.013564655 0.019756492 0.021878015
0.15790576 0.33848974 0.9691749 0.05530888 -1.3331733 -3.6652834 -3.8304336 -3.9150662 0.87158823 0.086659394 -0.09117302 0.045254234
0.22863664 0.23912181 0.9804181 0.9602327 -0.72017825 -4.047826 -3.9954207 -4.1574106 0.9034463 -0.035920117 -0.026358254 -0.01204191
0.02527341 0.5199867 0.6544418 -1.8292079 0.22583728 -3.567752 -3.6760802 -3.5046782 0.941515 0.066588014 -0.0070473785 -0.029691441
0.14861794 0.18364094 0.22390147 -0.7403401 -1.563425 -3.8728926 -3.9506488 -3.9328032 0.9890355 -0.009643744 0.011867009 -0.006999579
0.18828078 0.18038757 0.76088125 -1.4743925 -1.5465114 -3.360436 -3.4311092 -3.4148462 0.87367636 -0.020680865 -0.0199449 -0.100293405
0.12379369 0.22711402 0.3434574 -2.1220493 0.50116116 -3.9208136 -3.9984863 -4.0374684 0.9761586 0.010007144 -0.022894014 -0.006611817
0.10262787 0.49489373 0.7874521 -0.7495425 -0.70557594 -3.7624788 -3.6982007 -3.7209105 0.9937987 0.0056491494 0.00023572802 -0.005636533
0.22781466 0.25547048 0.3272565 -2.3280408 -0.13469364 -3.9059615 -3.8737283 -3.8420293 0.9915284 -0.0006223002 -0.0045740353 0.025877329
0.21913391 0.25479722 0.83751535 -0.60846335 -2.010964 -3.8178353 -3.5846417 -3.8442628 0.83081913 0.088168845 -0.012992114 0.09764371
0.013104813 0.14687751 0.6190797 -2.1368823 -1.8004483 -3.9659493 -3.9048462 -4.0065265 0.98360413 -0.00617407 0.022867015 0.0028896024
0.0906798 0.19901821 0.32989624 -2.032163 -1.2544137 -3.5358005 -3.496726 -3.562439 0.9881142 -0.0051368643 -0.04326966 0.045868456
0.10853822 0.49443027 0.9664824 0.7950766 -0.32749522 -3.6816316 -3.731405 -3.662065 0.85471797 0.10070619 0.03764113 -0.108032845
0.06260278 0.19660045 0.61355364 -2.9157386 -1.7782645 -3.9499319 -4.046847 -3.9968877 0.98975444 0.005362742 -0.0050689206 -0.011387772
0.18869221 0.054242186 0.9671144 1.0732489 -0.9127333 -3.5905921 -3.7005186 -3.543352 0.9912023 0.0066661257 0.00018195619 0.0152282985
0.18224537 0.5671761 0.9641259 1.0505685 2.991295 -3.9052765 -3.971348 -3.6888864 0.8324258 -0.12979357 0.05997778 -0.03705249
0.075634845 -0.0058613988 0.7194549 -0.3453715 -1.7706407 -3.6573474 -3.7649417 -3.582833 0.9875613 0.0069544576 0.014772123 0.009619823
0.17174418 0.28747204 0.32053646 -1.7952818 -1.3311083 -3.567911 -3.5576272 -3.5698462 0.9830561 -0.0051486283 0.0063432287 -0.020273406
0.14786568 0.5375255 0.77459794 -0.7546297 0.15534835 -3.82255 -3.853405 -3.9834208 0.84482676 0.042785212 -0.0927869 -0.055462763
0.1545468 0.4943072 0.90209943 -0.0011864064 -1.2946609 -3.4075634 -3.5178068 -3.2969246 0.98504585 -0.016051516 -0.004939636 -0.008942811
0.019254018 0.2744731 0.8028441 -1.2338091 -0.6027455 -3.7938397 -3.8228872 -3.8187404 0.9648579 -0.030022725 0.024991523 -0.003097619
0.013826718 0.61748856 0.57076067 -1.0022857 -0.40313467 -3.8777041 -3.8216078 -3.7108965 0.99960786 -0.0024344015 -0.0007680624 0.0020868452
0.048913248 0.28176212 0.35560924 -2.4328108 -3.8190274 -3.8205574 -3.8539565 -3.9511971 0.9893117 0.0101940865 -0.010075166 -0.005469864
0.06672909 0.115394875 0.7405259 -0.8612548 -0.8454147 -3.8222756 -3.7484145 -3.8563223 0.84954345 -0.00457186 0.05114221 -0.10670859
0.06899673 0.51301074 0.7720557 -1.0458102 -0.22255176 -3.9146578 -3.843132 -3.9150789 0.95672643 -0.01925402 0.014310111 0.001612082
0.019448137 0.2596637 0.9834734 0.5358865 -0.77101177 -3.9343169 -4.0378704 -4.2435403 0.9548788 -0.027306424 0.027720511 -0.006296632
0.18171646 0.23489137 0.6707655 -2.6738918 -0.32903293 -3.8769133 -3.7887073 -3.8014574 0.9265322 -0.026266333 0.032868724 -0.064200185
0.07337455 0.58500886 0.9233227 1.0207413 -1.0790578 -3.8307347 -3.9558017 -3.8941798 0.96963435 0.0073721525 -0.013543128 -0.022390135
0.16184707 0.11075317 0.9664246 0.7263737 -0.7781957 -3.8025286 -3.8898268 -4.084825 0.98085666 -0.019828325 0.00562243 0.007858267
0.010842515 0.38788795 0.9565707 0.4124002 0.49813047 -3.828177 -3.628953 -3.8154526 0.8762514 0.021712601 0.043053627 0.06493074
0.051800795 0.5034403 0.8173293 -0.66919094 1.5686586 -3.890424 -4.10243 -3.972019 0.97745275 0.0142012 -0.012624721 0.0050257235
0.13301064 0.6189125 0.9228329 1.1930897 -1.2806059 -3.86059 -3.892277 -3.9149911 0.9314523 0.0061510145 0.0033350594 -0.07246979
0.14869979 0.173018 0.7883091 -0.7330392 1.3103428 -3.8364902 -3.6868699 -3.8700848 0.9526596 0.008746896 -0.004882838 0.028227266
0.05489439 0.18370122 0.6230796 -2.4604895 -0.6358135 -3.4878783 -3.5242286 -3.543175 0.9598272 0.028951 0.0029554819 -0.027497249
0.19860682 0.6356964 0.77348256 -0.22212353 -1.088469 -4.016694 -4.117562 -4.0356045 0.8784421 -0.07816305 -0.01041978 0.019256786
0.23215738 0.5376915 0.9955413 1.5845081 -2.049208 -3.4761944 -3.3852954 -3.3560076 0.99547446 0.004770652 -0.0014731311 -0.009817629
0.02901065 0.20133428 0.946445 0.4103053 -2.621718 -3.7594721 -3.7170317 -3.849021 0.9642786 0.019219728 0.01697724 -0.0011430532
0.15093502 0.31042212 0.86963534 -0.49558187 1.6283461 -4.2162294 -4.1629176 -4.1946106 0.95324636 0.02077319 -0.007845037 -0.035963684
0.028071936 0.44332746 0.9058615 0.09151162 -1.1773785 -3.7650273 -3.832199 -3.9085376 0.9825625 0.009764782 0.0020049463 -0.0049744938
0.24098387 0.41728076 0.886924 -0.10397985 -4.007036 -3.546295 -3.63328 -3.5173054 1.0110918 -0.004618788 -0.0077505317 -0.009088482
0.038519714 0.20652814 0.24745408 -1.2038809 -1.2144921 -3.723951 -3.7282171 -3.5806518 0.9875463 0.005061856 -0.010224261 -0.0053415964
0.24127346 0.32437932 0.9072704 -0.095427506 -2.6082036 -3.8727803 -3.7603493 -3.9239826 0.9956107 0.0038873095 5.614823e-05 -0.00046179903
0.065764524 0.0486195 0.9471118 1.1071264 -0.18247283 -3.7188268 -3.8348956 -3.9198632 0.90573615 -0.00046842574 0.11569856 -0.016377099
0.014521072 0.2160511 0.74260926 -1.0725385 -3.1531599 -3.7519202 -3.869338 -3.848721 0.9376274 -0.008504849 0.06651727 -0.0013364534
0.051267114 0.19726026 0.76743495 -1.2121248 -0.027110122 -3.9996037 -3.9847581 -3.922633 0.99180835 0.005863648 -0.0036762655 0.011996108
0.080224894 0.27323428 0.33015817 -1.7772967 0.10989732 -3.778136 -3.7739 -3.8557665 0.98992574 0.009231328 0.009140218 0.0027678807
0.015473682 0.28026056 0.9765981 0.2900453 0.17176242 -4.002652 -4.0488615 -4.0369835 0.97292536 0.008138405 -0.016239222 0.020955605
0.20130178 0.10368543 0.86385787 0.08331215 -1.0377494 -3.8482695 -4.056914 -4.150678 0.9255093 0.012560636 -0.058456015 0.06535948
0.019278904 0.3301275 0.6552543 -2.8708467 -1.0873603 -3.929294 -3.9639654 -3.8498278 0.9042075 -0.05647286 0.078832366 1.6371514e-05
0.019055726 0.55901223 0.9130896 0.1924246 -0.58518696 -3.8291807 -3.7609603 -3.9013267 0.9652774 -0.039721698 0.011002065 0.072846085
0.0035856732 0.16627754 0.96769965 0.8599179 2.1985795 -3.8347578 -3.654447 -3.7711146 0.87782556 -0.08388316 0.028365966 0.08409806
0.10297376 0.64398813 0.89222795 0.82199943 -3.3036716 -3.7875292 -3.9557498 -3.8752677 0.9804123 -0.0150870485 0.0025273268 -0.008059347
0.0056863595 0.15985158 0.7821694 -0.6839293 -1.9736984 -4.031678 -3.9495263 -4.1051106 0.9372159 -0.019194447 -0.029565992 -0.002198566
0.10919698 0.20354618 0.20779021 -0.95923316 0.050922044 -3.7061296 -3.6099732 -3.7321618 0.98962647 0.006434988 0.0040753367 0.0041056266
0.04347307 0.116114214 0.6768943 -1.5859 -0.10337503 -3.8371246 -4.005846 -4.0793233 0.82328516 0.012918187 -0.052759342 0.079472564
0.14315629 0.18585329 0.7800289 -1.4068669 -0.79252493 -3.6060138 -3.6094127 -3.5068786 1.0000638 0.0031598688 -0.0025090417 0.014818305
0.09813503 0.13005811 0.9875857 1.0107214 -1.6304486 -4.2808986 -4.3116474 -4.6903076 0.85598886 -0.11034716 0.07857659 -0.0063775075
0.06592644 0.05953772 0.5534695 -1.0685866 -2.2036624 -3.7153149 -3.7438357 -3.5932727 0.88471264 0.0014138109 -0.15786995 0.008819697
0.029523132 0.090029255 0.69410187 -1.1735874 1.570465 -3.6795325 -3.731191 -3.6421053 0.8978713 -0.10440936 -0.011602363 -0.010369197
0.10301006 0.088971995 0.74725765 -1.0214437 -0.032807045 -4.219991 -4.224098 -4.216672 0.98920834 -0.003644773 -0.028254809 -0.0011961969
0.092731446 0.08338528 0.99971884 1.8880622 -3.7508466 -3.755467 -3.6719115 -4.142819 0.8744571 0.079563245 0.05986646 0.027668105
0.024253396 0.24756835 0.24193268 -0.87013793 -1.4497201 -3.756883 -3.6982038 -3.6854205 0.98590374 0.005604486 0.012646578 -0.010438277
0.21611173 0.3022704 0.37453058 -2.3060207 0.862632 -3.3948052 -3.4640908 -3.3147657 0.9108811 0.010046334 -0.05203087 -0.024725458
0.105334446 0.44245937 0.42530033 -2.563079 -1.9315853 -3.5600193 -3.6655653 -3.6493456 1.0087702 -0.0005368837 -0.0014860027 -0.00040645385
0.22513452 0.45854554 0.9883539 0.95925194 -2.2836325 -3.6136248 -3.6994417 -3.773613 0.99002147 0.0035646157 0.0015374336 0.0077489265
0.12278356 0.36832884 0.21529984 -0.6728916 -0.65337956 -3.7063317 -3.6484694 -3.6953654 0.97776 -0.011037741 -0.00036059855 0.012392967
0.20276076 0.109680645 0.82649666 -0.2468212 -1.7815812 -3.7274125 -3.6982958 -3.8089414 0.93890566 -0.04404141 -0.0357781 0.017288476
0.23263304 0.23673053 0.75425303 -0.9494438 -0.95770097 -3.9060063 -3.8563192 -3.8731928 0.9079958 -0.06918172 -0.025283448 -0.044552486
0.013993725 0.03175098 0.77813745 -0.33197534 0.11051382 -3.7888186 -3.7855566 -3.883691 0.8326794 0.06515243 0.1361238 -0.006142597
0.21989644 0.19982323 0.094445385 0.22326498 -0.2745609 -3.789096 -3.7171314 -3.751684 0.99907017 0.0003394135 -0.0038120814 -0.0062932167
0.17372926 0.2007195 0.08217789 0.18760929 3.2918656 -4.061214 -4.0171013 -4.053997 0.8845908 -0.06442062 -0.07947024 -0.040349472
0.006083664 0.38343915 0.6926233 -1.944074 -3.1520298 -3.8925571 -3.7019792 -3.9337091 0.99116534 -0.008378634 -0.0058340714 -0.0073617217
0.029334486 0.13662648 0.81238556 -0.4935918 -1.1041083 -3.9617121 -3.920504 -3.9086988 0.9901669 -0.005465131 0.004854775 0.0090763
0.015000489 0.52253675 0.91560876 0.53511333 -2.7817972 -3.9741676 -4.0955667 -4.1206813 0.9952654 -0.0074683963 0.0020699457 -0.000690567
0.18539353 0.4814181 0.7324383 -1.6697925 -2.8406532 -3.9951203 -3.9458447 -4.077556 0.9570542 0.005317503 0.0051543317 0.03943507
0.098288886 0.1853399 0.12034276 0.26232693 -1.1672652 -3.4843292 -3.6060455 -3.5998194 0.9507895 0.00027436306 0.0068525737 0.040093437
0.12319427 0.5887369 0.7166533 -0.6348266 -1.5218512 -3.6973941 -3.8470933 -3.923553 0.8525376 -0.03574558 -0.097240806 -0.121530436
0.22486174 0.4280854 0.9815209 0.6109823 0.099028565 -3.7065833 -3.7211432 -3.7525394 0.990187 0.0030750025 0.014200931 0.00058055494
0.20511359 -0.0070155268 0.7598372 -0.06558308 -2.5427468 -3.7419124 -3.8614626 -3.7918518 0.99015105 -0.0044674883 0.0035043564 -0.0044730273
0.12739056 0.39031655 0.96467686 0.6208467 -0.917633 -3.7411127 -3.7575185 -3.9682071 0.8631171 0.035297215 0.06286377 0.10157979
0.09125095 0.42062128 0.9776209 0.57998496 -1.8091719 -3.8383996 -3.7131991 -3.774584 0.96151114 -0.013816994 0.0049658916 0.06309506
0.09123436 0.24482568 0.17837493 -0.7491671 -0.39376786 -3.5448284 -3.6486905 -3.5388222 0.97109145 -0.00870357 -0.012212604 0.027668865
0.061360344 0.5105211 0.98448753 0.9290308 1.6772473 -3.8383813 -3.782503 -4.100021 0.8148413 0.10230638 -0.07341137 0.0016940371
0.1983557 0.50374305 0.7350834 -1.3321826 -1.416056 -3.8618224 -3.8951385 -3.9878688 0.8736929 0.08272381 0.01068929 0.03739907
0.08189737 0.15756233 0.6166832 -2.2756329 0.9993313 -3.8152206 -3.8219376 -3.893191 0.96329224 -0.0075958814 -0.037526116 0.019720612
0.08133104 0.21854861 0.9243952 0.23534481 -1.13364 -3.536099 -3.5288997 -3.6573114 0.9792165 -0.0024918292 0.015906423 0.006312386
0.012714418 0.018511811 0.69534445 -0.4181739 -1.7953383 -3.8115578 -3.8541071 -3.8082757 0.97073185 0.01474445 -0.0041114106 0.013027441
0.094252855 0.34219044 0.73326874 -2.5860932 1.4679736 -3.60155 -3.5406554 -3.582818 0.8737682 -0.08073021 -0.01900411 -0.08292033
0.018660141 0.1516557 0.6732494 -1.6577748 -0.56435275 -3.956324 -4.0886927 -4.0026565 0.9819711 -0.004840795 -0.014722971 -0.01528063
0.09950752 0.5392701 0.7337562 -1.278469 -0.06886975 -3.7641845 -3.7456632 -3.7212317 0.9544379 0.015165786 -0.012702562 -0.024338285
0.22544338 0.57512003 0.78635496 -0.31461087 -1.3624012 -3.6626382 -3.6951964 -3.7868128 0.9860436 -0.0041063535 -0.01246796 -0.011627893
0.09691393 0.3040845 0.26013374 -1.3267477 -1.4898931 -3.449614 -3.322114 -3.4942153 0.97641295 -0.0034955312 -0.009857496 -0.005834259
0.23740573 0.013386211 0.687405 -0.23553418 -0.35305163 -3.4446955 -3.4995408 -3.2786248 0.9660384 -0.015549728 0.006647579 -0.06348599
0.09723381 0.075895585 0.8294075 -0.57075304 1.2136797 -3.624503 -3.637365 -3.6592085 0.9861437 0.0031522906 -0.015817586 -0.004009688
0.15203404 0.5270856 0.9109147 0.022822404 -1.9019064 -3.7383385 -3.6505902 -3.6262994 0.8507599 -0.04467434 0.092952415 0.012428618
0.19489211 0.21854255 0.8947702 -0.2540019 -2.760678 -3.7159014 -3.7739115 -3.7985644 0.9840463 -0.009088132 0.013580597 -0.013681736
0.16853549 0.250282 0.18422617 -0.8797132 -0.2937736 -3.5101871 -3.5556767 -3.66136 0.9801711 0.009208698 -0.015353412 -0.01200026
0.16481033 0.15448938 0.9879206 1.2752384 -2.910243 -3.9780686 -3.9315112 -3.9082816 0.9026555 0.050018527 0.02828088 -0.041236818
0.21972916 0.24928783 0.2218963 -0.8664935 -1.0520447 -3.8626823 -3.5050497 -3.8397796 0.9815642 -0.000552897 -0.009302145 -0.025166754
0.07618996 0.6162562 0.9920177 2.9631226 -0.8112006 -3.5830343 -3.4957678 -3.6251113 0.9887956 0.010248218 0.0013439975 -0.0077539985
0.05749256 0.62019545 0.61575985 -0.951174 -1.0112138 -4.075663 -4.18031 -3.772772 0.83124614 0.114629164 0.090657525 -0.08167784
0.16519263 0.030227896 0.9210661 0.8268475 0.0040568262 -4.353498 -4.326006 -4.396545 0.98839587 -0.011752819 -0.0049385238 -0.0040580863
0.0133644445 0.24729209 0.8732047 -0.31667313 -1.7282697 -4.05781 -4.021416 -4.113106 0.99182934 -0.0077811102 -0.0017504864 0.00027432718
0.15759215 0.012262943 0.60345125 -0.7343179 -1.596894 -3.8398125 -3.8151686 -3.8409672 0.98961425 -0.012124633 0.008461329 -0.001100807
0.050797146 0.06292106 0.83535016 -0.16322754 -1.1018616 -3.7126799 -3.5913906 -3.410061 0.94934565 -0.05395362 0.0022671095 0.006283512
0.034094915 0.49449235 0.6651557 -1.9095768 0.46986073 -3.9611812 -3.8204935 -3.9038699 0.9407303 0.015879866 0.050927915 -0.042678565
0.17418694 0.2566082 0.98129827 0.10781953 -1.3108807 -3.8192284 -3.8259149 -3.8849244 0.97086823 -0.023221046 0.0012634016 0.0005433157
0.0069337008 0.62112087 0.8526531 0.16476385 -1.2433721 -3.7674687 -3.6634283 -3.6667745 0.98265964 0.009373347 -0.010581477 -0.00033128352
0.184306 0.14133899 0.97119004 0.8611593 0.29795212 -3.9022555 -3.8344014 -4.016702 0.8260436 0.072901495 -0.14066409 0.011223196
0.21749273 0.012006352 1.0097055 2.382015 -2.8328822 -3.882353 -3.7591484 -3.9072368 0.9669315 0.020761006 0.019059515 0.008623189
0.23146321 0.19093445 0.30730015 -1.1764685 -2.9177334 -4.0867662 -4.0834756 -4.129276 0.9948056 -0.0042585153 0.0016565748 -0.00031865612
0.10531232 0.1728414 0.80104595 -0.9579416 2.6196399 -3.944807 -3.8464382 -3.966019 0.97396886 0.0324337 -0.011202784 -0.02307118
0.06268313 0.021576142 0.88871324 0.42191005 -1.3340908 -3.7799962 -3.8703315 -3.815846 0.98804843 -0.00096527924 -0.008551738 -0.011004802
0.047855224 0.39317557 0.96216965 0.11278512 -2.0547605 -3.5346615 -3.4604409 -3.5998197 0.9721679 -0.024733339 0.0036174122 0.0016309578
0.02506844 0.1445838 0.80809784 -0.5113436 -2.426762 -3.8455286 -3.973172 -3.8191743 0.97899234 0.013875086 -0.011414793 -0.008774828
0.19232737 0.2528918 0.1432015 -0.4605184 -0.5255934 -3.640594 -3.5556638 -3.7002132 0.98478127 0.013750394 0.0039815954 -0.017594563
0.13879913 0.24985452 0.97974986 0.50802296 -2.1129084 -3.8683298 -3.7860572 -3.7423255 0.9776389 -0.014976754 -0.003577868 0.010134823
0.20280756 0.3442069 0.3066552 -2.1593175 0.4781025 -3.6627882 -3.6734393 -3.7420883 0.98347414 0.015511743 -0.0055636424 0.0008682897
0.22153154 0.47066286 0.7564519 -1.0681155 1.4810592 -3.9181445 -3.857628 -3.903889 0.97736007 -0.019079037 0.0017449252 0.0060237604
0.122804984 0.28315958 0.8766233 -0.6958587 -1.0179226 -3.4580765 -3.330648 -3.3411653 0.9462319 -0.0069304276 0.06593433 -0.016176822
0.030596327 0.2764768 0.32152954 -1.9201652 0.016203975 -3.7728302 -3.7164676 -3.7656116 0.9928281 -0.007467242 0.0044834856 -0.0036801957
0.02392431 0.5309798 0.95542026 0.46029514 -1.6320641 -3.4862242 -3.6157994 -3.617934 0.9922465 0.002428137 0.0044818935 0.007005511
0.0677258 0.36061633 0.9638826 0.3673072 -3.8883355 -3.422689 -3.4470413 -3.4567535 0.99193466 0.0063273897 -0.011098842 -0.0026143333
0.060007174 0.10127384 0.5699177 -1.9134994 -1.5329543 -3.8997986 -3.823496 -3.8145268 0.87831175 0.09102073 0.07957622 0.09998637
0.072445124 0.010809674 0.9587489 1.1705027 -1.9479111 -3.953785 -4.026008 -4.04711 0.98325694 0.010868619 -0.005561876 -0.0068327365
0.0776551 0.45638233 0.94568104 0.14980714 -1.0434132 -3.8601744 -3.9884427 -3.9236262 0.9899437 0.037480336 -0.021551086 -0.007185907
0.21471113 0.36691353 0.21597368 -0.60015273 -1.9241649 -3.508806 -3.5121036 -3.620509 0.9331544 -0.024506053 0.010203249 0.011361735
0.06804447 0.4788258 0.82581216 -0.86907834 -0.7382066 -4.0951414 -4.1104307 -4.056839 0.9957485 0.004057765 0.0037934417 0.0005778127
0.23320848 0.017257253 0.9560551 2.2561772 0.28485665 -3.7173615 -3.6761203 -3.7333872 0.955244 0.07015787 -0.016533408 0.013423151
0.011183817 0.24374364 0.85902375 -0.55865896 1.9074965 -3.9542637 -3.8952427 -3.8733442 0.97887427 0.00012731647 0.011489197 -0.029336125
0.23631875 0.09141308 0.90170294 0.5529433 -2.176205 -3.3970532 -3.3910065 -3.1603322 0.9983775 -0.00065820856 0.0046608406 0.0034605043
0.057669807 0.08439594 0.800891 -0.33563948 -0.4577021 -3.7374356 -3.7715464 -3.6235442 0.9767513 -0.019322872 0.018571673 -0.0015658775
0.068188004 0.24105182 0.7517115 -1.6405672 -1.447398 -3.7117593 -3.7470083 -3.704423 0.9937677 0.0011691342 0.0021274681 -0.010313625
0.042759392 0.19038107 0.8110976 -1.0249506 -1.1961545 -3.6297064 -3.5927052 -3.5971866 0.97952676 0.0058112433 0.020121561 0.0011503588
0.19937648 0.4457285 0.87917084 -0.23924643 -2.5739183 -3.5478072 -3.5543852 -3.6428032 0.96869725 0.0077994503 -0.016685402 0.02985693
0.06051426 0.13938606 0.5703368 -2.5656424 -0.6513203 -3.948149 -3.9530158 -4.072777 0.93009955 0.035095397 0.057133745 -0.0021705588
0.018442152 0.09944187 0.79788274 -0.5973617 -1.015304 -4.0432234 -4.1012335 -3.9606845 0.9822469 0.0036339134 0.017420001 0.00709009
0.2075623 0.3464577 0.3961884 -2.6715977 2.3120449 -3.8427398 -3.85619 -3.808073 0.9625727 -0.041848768 0.0030852205 -0.026018536
0.11487514 0.15058619 0.6697543 -1.4566664 -3.3602757 -3.7641144 -3.9758487 -3.8673098 0.90668017 -0.036580775 0.001213077 -0.04932363
0.13431911 0.12299548 0.20866534 -0.27350837 -1.2237233 -3.5325844 -3.6320298 -3.650739 0.99169433 -0.010688948 0.0011047176 0.002502061
0.009310286 0.39206886 0.9737427 0.5921944 0.22434594 -3.7974977 -3.6148014 -3.6331315 0.97054714 -0.009012879 -0.010881028 0.021807501
0.22407602 0.16242419 0.85263216 -0.5441073 -2.2473817 -3.6684856 -3.8169842 -3.8029513 0.9818037 0.010600291 0.007920267 -0.012838347
0.017201535 0.5952385 0.97592175 1.6270643 -3.149052 -3.3899612 -3.8432486 -3.8701508 0.98398197 -0.016944312 -0.004978398 0.025538808
0.13423683 0.46901223 0.97726995 0.5139941 1.1702933 -3.8367934 -3.8378067 -3.680722 0.83536625 -0.06354748 -0.1301804 -0.019253785
0.16691902 0.23852584 0.05430932 0.9454525 -0.23673622 -4.380554 -4.33175 -4.4529796 0.9075035 -0.023618637 -0.036436614 -0.017499361
0.01181657 0.030070083 0.97732174 1.4918605 0.23431157 -3.8289795 -3.6479409 -3.8007016 0.83345103 -0.06313762 0.07184663 -0.07003244
0.054140862 0.6267139 0.7714213 -0.28271732 1.0419807 -4.014382 -4.0634923 -4.0498724 0.99855673 -0.0069273007 -0.00074684387 0.003493514
0.023649715 0.30376405 0.36462814 -2.1155887 -2.5436661 -3.5428758 -3.4919617 -3.5914674 0.99091166 0.008827918 -0.0056600412 -0.0063122725
0.08069735 0.02115002 0.5781322 -1.1748314 -0.4057463 -3.760483 -3.8608372 -3.7794812 0.94019246 -0.038946547 -0.0026679446 0.04311436
0.096825905 0.19559638 0.97295564 0.42403707 -0.7620786 -3.981278 -3.953767 -3.979683 0.9865246 -0.00051296735 0.0049594305 -0.013747094
0.025086267 0.3750582 0.8624189 -0.47834393 1.22717 -3.4940808 -3.5245957 -3.40723 0.84649885 -0.12022204 -0.047647435 0.039349936
0.02121699 0.067991436 0.94311893 0.8587524 1.2636938 -3.5955145 -3.4523396 -3.661513 0.9120828 0.06897186 -0.08545301 0.001775132
0.11457219 0.62795806 0.7131176 -0.5986333 -1.3218765 -3.706326 -3.8340554 -3.3853238 0.86641014 -0.07964393 0.12413261 0.035149384
0.23337974 0.22986913 0.9646911 0.79061884 -1.2373427 -4.0183444 -4.0394278 -3.979293 0.99650455 0.0015585765 -0.002470876 0.014170934
0.06280493 0.34335375 0.68543804 -2.1319017 -1.357639 -3.391773 -3.2533631 -3.3920257 0.8383989 0.004184137 -0.03607828 0.08522336
0.0327865 0.29355374 0.9260446 -0.013009178 -2.5692377 -3.8199906 -3.72531 -3.8805013 0.9960841 -0.0012565268 0.00611141 -0.006154863
0.1669515 0.0012829365 0.8138244 0.22546162 -2.1853294 -3.8080087 -4.123281 -3.9400115 0.881104 0.07620083 -0.042158887 0.03556597
0.019165006 0.30291384 0.95579237 0.07752973 -0.21941975 -3.6691394 -3.7102532 -3.5147552 0.9032804 -0.055226095 -0.073151246 0.06829609
0.1574392 0.03936525 0.7950795 -0.06875325 -1.7731864 -3.8906674 -3.7171373 -4.1368337 0.90652126 -0.090409376 -0.0064200503 0.066310726
0.07763466 0.025618471 0.6936776 -0.71716225 0.7345776 -3.9456642 -3.9644635 -3.836086 0.93267155 0.047234707 0.065489426 0.021260006
0.22231859 0.20082107 0.9344999 0.51854634 -1.0705416 -3.5739007 -3.6148522 -3.5293984 0.98827857 -0.010672888 -0.009881391 -0.0034476386
0.12772883 0.4013606 0.3544064 -2.5097642 -1.3113258 -3.644508 -3.3945756 -3.68575 0.9587196 0.023733124 0.0029996524 -0.029665908
0.1196151 0.3103626 0.76285446 -1.7317789 -0.5087403 -3.2564044 -3.214397 -3.3065875 0.9943524 -0.005671486 8.9719564e-05 0.0031879134
0.17937627 0.3985686 0.2607041 -1.5111371 0.7509317 -3.9563622 -3.9879224 -4.0417385 0.94615114 -0.0578475 -0.0019199785 0.01995455
0.13103242 0.060031798 0.9808687 1.3144325 -1.7243907 -3.8710036 -3.7190082 -4.0331964 0.86208785 -0.08749972 -0.07848047 -0.10994323
0.22995073 0.5391343 0.8985931 0.033449348 -1.0150385 -4.1676893 -4.037149 -4.2518005 0.95377606 -0.04264386 0.0015924776 -0.03386452
0.060673337 0.49366686 0.99699765 1.0421687 -2.323706 -3.8431492 -3.794192 -3.884818 0.95890784 0.030139063 -0.062573455 0.0048978864
0.090634085 0.0017672204 0.7756514 0.069932945 -1.6301686 -3.7467394 -3.9666817 -3.9214058 0.8632095 -0.039839078 0.027526626 -0.07572092
0.009692797 0.56734514 0.8321846 0.23280773 -0.7944343 -4.2186866 -4.197044 -4.113354 0.98202884 -0.0068591433 -0.01592478 -0.00068404275
0.02233331 0.3209351 0.38302693 -2.3238122 -0.495939 -3.7427435 -3.729045 -3.6082468 0.9372985 -0.010252416 0.06399431 0.041202188
0.19791211 0.3028141 0.17794956 -0.5354439 -0.8666474 -3.738712 -3.6672015 -3.8928869 0.98282063 -0.0018246886 -0.03407664 -0.011991458
0.19218762 0.30328298 0.19007732 -0.80485433 -0.55626625 -3.713643 -3.7173605 -3.9388053 0.9807085 -0.018239928 -0.005134394 0.0066092345
0.23100728 0.1018608 0.75650275 -0.65292597 0.40352878 -3.903616 -3.6886861 -3.8996892 0.93538934 -0.042346526 -0.047616728 -0.020679772
0.0117986305 0.5417162 0.80948544 -0.6022365 -0.77181715 -4.1657243 -3.9370604 -4.0162253 0.9303946 -0.0034168933 -0.02276689 0.041490354
0.061907016 0.34947056 0.78103465 -1.2685039 0.25515413 -3.6018894 -3.6272314 -3.7480133 0.98456883 -0.008093686 -0.005140187 -0.025958514
0.12770745 0.4871414 0.58432645 -2.4561582 -2.3733346 -3.7869186 -3.8636396 -3.7552035 0.9770829 -0.016602464 -0.0068107354 -0.010052679
0.23478636 0.40183952 0.7997587 -1.2157166 0.70618 -4.0265493 -3.9316707 -4.0549207 0.8491793 -0.089158334 -0.09173476 -0.026947193
0.17233552 0.13496715 0.65284365 -1.8113775 0.07600722 -3.723288 -3.7460592 -3.9056528 0.8232152 0.058890034 -0.14001523 -0.062003996
0.22943996 0.13668308 0.894163 0.13268715 2.0357175 -3.9890254 -3.9169762 -3.978523 0.93993104 -0.04374632 -0.029071975 -0.05146934
0.13705361 0.009384022 0.63586974 -1.0669043 -1.4430045 -4.008689 -4.090151 -3.9914536 0.9452113 -0.004680234 -0.009537746 0.004854919
0.22219963 0.3481363 0.27816308 -1.3703759 -3.040049 -3.5064807 -3.4861274 -3.6543567 0.9859549 -0.009933504 0.0065715164 -0.0012973859
0.06636792 -0.0007633723 0.49136752 -0.6845686 0.49298605 -3.6351194 -3.8416598 -3.776668 0.99252385 0.0045345696 0.008545324 0.0022937057
0.02633988 0.35672116 0.3747868 -2.3348587 -1.4293345 -3.269638 -3.388376 -3.4659824 0.9863919 -0.012697268 0.0042868336 -0.008711325
0.1985642 0.38157615 0.73198223 -2.0842807 -2.2866673 -3.8624256 -3.9137704 -3.8141017 0.9334426 -0.05661585 -0.03245102 -0.026581772
0.23055974 0.17957649 0.7938267 -1.1710194 -0.4145743 -3.8921049 -3.8279421 -4.0161552 0.9253847 0.04085127 -0.051962484 -0.03456846
0.19632375 0.16191141 0.19792867 -0.7035927 -0.39469177 -3.701179 -3.7084467 -3.5960631 0.983725 0.020980194 0.002221009 -0.0018750377
0.23536256 0.15153666 0.9485246 0.7239984 -2.7104561 -3.7914972 -3.8712316 -3.7363937 0.9625176 0.04093206 0.0033688948 0.009899916
0.19535355 0.45548242 0.9268002 0.39215404 -2.6557512 -3.6998105 -3.6807482 -3.6063077 0.9882573 0.0035076125 0.016640114 0.028435413
0.06281451 0.11308699 0.7633246 -0.81008416 0.70199996 -4.1270995 -3.892034 -4.045036 0.96456474 -0.024575736 0.0068850312 -0.025142748
0.03322226 0.42959246 0.87264395 -0.48085064 -0.7727628 -3.5649567 -3.6094787 -3.5880678 0.9799749 -0.002223629 -0.009302276 0.0033528332
0.23874065 0.28448024 0.8551871 -0.5629953 -2.9695451 -3.6929092 -3.717844 -3.5858076 0.9885637 -0.010586913 0.0052324613 -0.0034266955
0.04553361 0.46829504 0.8285821 -0.8675254 -1.3673236 -4.120833 -4.1114435 -4.1298556 0.97868586 0.0029229382 0.0151490895 0.049376674
0.18066557 0.14965273 0.9558325 0.51579136 1.9339371 -3.7064157 -3.5422885 -3.7760353 0.8410434 -0.068593256 0.087537535 0.10882275
0.24270625 0.39692575 0.7413208 -1.8145378 -0.95702976 -3.5350099 -3.3969662 -3.4954467 0.99399465 0.0056850975 -0.015709838 0.0071980436
0.09196749 0.56727004 0.76707774 -0.86797774 -0.3711769 -3.8513067 -3.8069773 -3.8769407 0.9724169 -0.00040431254 0.02750772 -0.025382293
0.22288445 0.32264236 0.72135764 -1.7226346 -1.6470155 -3.5733788 -3.5495193 -3.5856788 0.9947351 0.0022675348 0.0053563477 -0.0019314372
0.12819496 0.38894635 0.96098596 -0.036957152 -0.096129574 -3.580054 -3.6213405 -3.636265 0.8892627 -0.029752243 -0.021444568 -0.08103251
0.016882444 0.06549813 0.7161914 -0.7912579 -0.2646356 -4.031718 -3.9492257 -3.9391932 0.97667295 0.009825217 -0.01279027 -0.036216833
0.20828037 0.0148671 0.8106926 0.22234595 -1.6147238 -4.1856465 -4.228505 -4.107895 0.8507624 0.009094883 0.12796757 0.007495989
0.032860283 0.2501579 0.9913648 0.802416 -3.3608234 -4.521874 -4.4114866 -4.492214 0.98821074 -0.004572501 0.013661317 -0.001179644
0.19198993 0.024073716 0.8654911 0.3826012 -1.858419 -3.854355 -3.994509 -3.803143 0.97938836 -0.011298949 0.026334977 0.004719334
0.10875223 0.30861366 0.96521294 0.12799275 -1.6484146 -3.7841341 -3.8446412 -3.8779752 0.9709085 0.0019947453 0.018095475 0.0094285365
0.064035855 0.30526486 0.3283955 -1.9107007 0.092714705 -3.48492 -3.6138067 -3.7428877 0.8775375 -0.08699629 0.055085424 -0.07911451
0.07723601 0.60920954 0.98033744 1.7821348 1.0860859 -3.6860423 -3.6788342 -3.6900172 0.99440336 -0.0036681131 -0.005403353 0.0028087248
0.22417077 0.44848442 0.8622166 -0.43790624 1.5400736 -3.840308 -3.871376 -3.806755 0.9867654 -0.010650505 0.007000274 -0.006316441
0.08728158 0.6497205 0.81181115 0.2741164 -2.4676657 -3.2277656 -3.9205928 -3.8824327 0.8146478 0.033375453 0.111804664 0.13784495
0.108701535 0.249851 0.7050608 -2.6584618 0.24051318 -3.7243664 -3.7307057 -3.8133545 0.96671444 -0.02441279 0.0341248 -0.006381653
0.22811931 0.44387114 0.95636547 0.296261 -1.7344007 -3.8179772 -3.853682 -3.8265557 0.99727386 0.003362665 -0.0027136363 0.0041187876
0.08879669 0.311361 0.6895511 -2.6775532 1.3770258 -3.6858556 -3.7192245 -3.6683378 0.99870914 0.005986341 0.002748092 0.0043332935
0.045760058 0.392634 0.6798861 -2.554272 0.43999 -4.0841966 -4.080891 -4.0767274 0.9713446 0.007220157 0.012331846 -0.011529166
0.045656223 0.07514323 0.61878 -1.0175071 -0.8932971 -3.6527174 -3.6484504 -3.7140772 0.9918647 0.003487015 0.0012277102 0.0019529422
0.24290398 0.04994625 0.69493616 -0.48772612 -0.8137963 -4.190621 -3.9707358 -3.9936988 0.9788912 0.004172573 0.020128239 -0.0025625778
0.09949377 0.25827366 0.77052206 -1.2646736 0.105770454 -3.5425897 -3.4847813 -3.479066 0.93902636 0.023241518 -0.0051879506 -0.0015926609
0.19878447 0.2500122 0.10487568 0.042157795 0.6312573 -3.5208378 -3.4027758 -3.4085915 0.9442079 -0.026806379 -0.03410629 0.013178666
0.23217669 0.18812053 0.7408562 -1.3267027 -0.7802639 -3.920777 -3.8552394 -3.9881167 0.9768126 0.03648372 -0.057668358 0.010590251
0.1302788 0.20927541 0.10819862 -0.07569043 -1.3217788 -3.4913793 -3.4578774 -3.5171669 0.9773031 -0.022186803 0.011701882 -0.0061807414
0.031817455 0.46846473 0.8964216 -0.24524723 -0.4482038 -3.4738781 -3.5358825 -3.5459955 0.98780894 0.010602388 0.007733765 0.0048914836
0.22380413 0.032162383 0.61599183 -0.894577 2.2780788 -3.917848 -4.023106 -3.815089 0.8560222 0.07569253 -3.9081733e-05 -0.011673249
0.2191125 0.23227338 0.67654234 -2.3293338 -0.9867063 -4.009159 -3.7057781 -3.8860767 0.98541087 0.018039523 -0.016283054 -0.010104495
0.22266592 0.37034062 0.3068328 -1.9121861 -0.7502 -3.746871 -3.6244357 -3.583218 0.9854069 -0.0040580165 0.008027591 0.014629505
0.015165467 0.6276524 0.6665728 -0.51613647 -2.5710099 -3.504269 -4.0387106 -3.8284957 0.84314036 -0.06760239 -0.06497704 0.108088575
0.07517125 0.358945 0.321886 -1.8852726 0.27163962 -4.274761 -4.356205 -4.3740516 0.9414623 0.02410132 -0.042540703 0.03105723
0.23642395 0.628539 0.8049126 0.16646697 -1.8297172 -4.2497864 -4.3208175 -4.269763 0.98413646 0.012684772 -0.014193209 0.006531372
0.07789764 0.64825934 0.6914805 -0.50486976 -2.6473277 -3.798962 -3.8621054 -3.740108 0.95072544 -0.019925836 -0.001813753 -0.021404475
0.05507001 0.15008003 0.11285231 0.7938254 -0.77778333 -3.7224748 -3.7703977 -3.6411116 0.99652314 0.008384453 0.0040766327 -0.008302204
0.057194095 0.28499976 0.21632549 -1.2169306 -0.26674843 -3.7076645 -3.7123976 -3.7075062 0.9440778 -0.020934165 -0.012865892 -0.046808574
0.2315144 0.23163843 0.95481884 0.21806881 -0.49686888 -4.0955944 -4.0732536 -4.011657 0.87516916 -0.06160123 0.04749667 -0.102996156
0.17109105 0.40663597 0.881019 -0.64764243 0.4646797 -3.6474707 -3.825064 -3.811302 0.94199365 -0.005955604 0.023812927 -0.0688131
0.22976758 0.32537016 0.7472809 -1.7873304 -1.1876442 -4.261973 -4.132881 -4.3169994 0.96878517 0.020117942 -0.01859951 -0.023423797
0.22335024 0.27391547 0.21813478 -0.6179913 -0.6958532 -3.7724745 -3.7591794 -3.8837416 0.97917885 -0.012427995 0.019717654 -0.01749236
0.007629868 0.60050285 0.61230487 -0.74393946 -2.6164684 -4.157091 -4.194105 -4.173507 0.9950128 -0.006867015 -0.0016549407 -0.003738367
0.08207693 0.2748509 0.33626127 -2.7407286 0.1926723 -3.7597578 -3.6913629 -3.7997801 0.8916842 -0.057635095 -0.00039718303 -0.051401403
0.20071915 0.63195634 0.83686185 0.648001 -0.3964587 -4.1496572 -4.1761003 -4.2487216 0.86621475 0.054722983 -0.034380626 -0.1086739
0.1291691 0.044665083 0.9920805 1.9248394 -2.1528668 -3.837514 -3.5835977 -3.9577475 0.91980076 0.04307053 0.072194956 0.03925876
0.17375438 0.40896186 0.8908324 -0.2518679 1.6487881 -3.5919855 -3.7681928 -3.7666242 0.9395151 -0.0035265826 -0.039194357 0.03808876
0.21778043 0.37324134 0.84150827 -0.7365045 -0.37043902 -3.7773507 -3.738315 -3.7755175 0.99354905 0.004711514 -0.0023583688 -0.0027908722
0.050469384 0.111805245 0.5764374 -1.6617951 -0.17383067 -3.773946 -3.7305288 -3.782479 0.93245655 -0.0018685199 0.03348862 -0.06345393
0.026977425 0.12716164 0.19291158 -0.60862935 -1.5208875 -3.8291552 -3.8075588 -3.762833 0.96601206 0.006290898 0.034049448 0.010556106
0.034127377 0.17564917 0.30745128 -1.2777885 0.73867697 -3.7298195 -3.7221458 -3.7859719 0.9268315 -0.010765287 -0.03702639 -0.024678797
0.21726698 0.013430074 0.9181387 1.022903 -0.27922618 -4.229145 -4.306833 -4.3142486 0.9416367 0.03425372 0.029178666 0.0015843763
0.22575498 0.34749994 0.37640703 -2.4633205 -0.7308112 -3.8144298 -3.7463157 -3.65137 0.9882934 0.0069815945 -0.009929847 -0.006552594
0.07688381 0.35898706 0.2512988 -1.1171415 -3.8715572 -3.643905 -3.6572058 -3.574513 0.9871132 -0.0085241 -0.009728966 0.00059455435
0.16573024 0.27114615 0.29912615 -1.4413756 -0.7924404 -3.9825728 -3.9326322 -4.0571737 0.93963385 -0.034896404 0.060254678 -0.004356262
0.069327824 0.32050198 0.9971845 0.81850946 -1.4706753 -3.6745832 -3.580463 -3.6453166 0.9813077 0.010516033 -0.012489151 -0.00021061717
0.030831493 0.23381771 0.8132242 -1.0095496 0.37710702 -3.6497357 -3.565706 -3.7610903 0.9291353 0.065176114 0.02868725 0.0041953926
0.026082829 0.4303491 0.91080135 0.042372014 4.0984154 -3.8547354 -3.9466321 -3.9279435 0.8827757 -0.02083401 0.024385536 -0.08697185
0.1953688 0.04394144 0.718248 -0.79963845 -0.5249634 -3.6894822 -3.530724 -3.6357613 0.8597474 0.066563874 -0.010793961 -0.10609461
0.13677303 0.4756392 0.5979645 -2.5815103 -0.45666865 -3.9566817 -4.13884 -3.6304295 0.8381088 -0.12014212 0.12091545 0.042812638
0.08861567 0.1302654 0.67944664 -1.7879752 -1.4287066 -3.8009906 -3.6937296 -3.7556183 0.97347224 0.0033605273 0.0019646792 -0.022998633
0.16630428 0.26184377 0.88478315 -0.75885653 0.86257684 -3.5305567 -3.5803025 -3.5725415 0.94576395 0.017107995 0.009415822 -0.031635676
0.067705214 0.34090102 0.2616817 -1.3002299 -0.9927163 -3.770828 -3.970181 -4.10127 0.9404789 -0.050640203 0.029855544 -0.04715745
0.22732793 0.26377785 0.19498989 -0.80411625 0.7738758 -3.8653383 -3.855163 -3.8553145 0.9898476 -0.006410941 0.009765967 -0.007060057
0.18766467 0.012534751 0.9366381 0.8843801 -1.4291205 -3.9193215 -3.9171088 -3.8613317 0.968386 0.0032775686 0.030626725 0.022531934
0.19779392 0.23073569 0.21476035 -0.9938268 -0.30476004 -3.7653182 -3.809225 -4.011116 0.90890765 -0.02936398 0.017542433 -0.030176211
0.21893427 0.36570036 0.30085734 -1.6282344 -1.3212398 -3.582761 -3.6076496 -3.8433187 0.99625605 -0.0073752846 -0.0023411156 -0.005720412
0.15426093 0.090140596 0.618883 -1.9128176 -1.3909816 -3.7478938 -3.6826668 -3.7542636 0.832502 0.03757738 -0.010998022 0.09982539
0.079315655 0.21447262 0.09667508 0.07928725 0.79979265 -3.719891 -3.8024147 -3.774142 0.91136014 -0.04930322 -0.029014438 -0.051627427
0.0053684576 0.6122501 0.778347 -0.36857572 -2.1996017 -3.7534158 -3.7802484 -3.685012 0.978855 0.008515746 -0.007845588 0.044229154
0.15863179 0.3045906 0.93812126 0.03313213 0.05822416 -3.6237135 -3.4025378 -3.79133 0.88618475 0.011745534 -0.014853861 -0.075613014
0.22007729 0.054649975 0.7033765 -0.57132626 -2.7228947 -3.9694164 -4.0630302 -4.128287 0.99329287 0.004812883 0.008191011 0.00431544
0.17703977 0.077882335 0.63397676 -1.072521 0.30917552 -3.7789905 -3.8183653 -3.768004 0.8810781 0.060453717 -0.03133797 0.000413306
0.1921162 0.56990117 0.88488674 0.5373829 0.46531162 -3.4652877 -3.4562953 -3.482985 0.9809508 0.025244351 -0.008058829 0.0045034955
0.13791107 0.2938778 0.20839535 -0.9030265 -1.4255654 -3.9284918 -3.8085423 -3.763781 0.9770368 0.00324346 -0.01699652 -0.0088486085
0.045696206 0.00015520785 0.67255974 -0.370961 -0.65978193 -4.383671 -4.570753 -4.548722 0.8503618 0.007317317 -0.1197953 0.10487624
0.029102314 0.60885096 0.80744475 0.087047294 2.3533142 -3.7528672 -3.7270737 -3.7457345 0.92674273 0.0059438995 -0.068689555 0.039564647
0.07395504 0.11071728 0.13373561 0.48651323 -0.9801634 -3.9363515 -3.8933659 -3.8656278 0.96810895 -0.013403535 0.0053488077 -0.017965944
0.11560213 0.0644255 0.62167954 -1.499857 -0.94034106 -4.110133 -4.1524253 -4.0503736 0.8621036 0.0049214726 -0.107965164 0.010289012
0.09228401 0.4167824 0.95439285 0.5672235 1.5932162 -3.5142336 -3.5118678 -3.5046723 0.97222656 -0.03089893 -0.0044004773 0.03160995
0.1341659 0.090947695 0.9760915 1.0422077 -1.2100507 -3.7335446 -4.179947 -4.2510734 0.8829431 -0.04456113 0.10328724 0.013391857
0.102244616 0.13118546 0.978293 0.8757137 1.3182818 -3.980429 -3.9842749 -4.031756 0.96597755 -0.0070219743 0.021692006 -0.023708435
0.018622877 0.11881716 0.957752 0.6075364 -1.225383 -3.9798632 -3.928274 -3.9831042 0.9885115 0.0058545982 0.013744579 -0.016935838
0.21601973 0.35212404 0.21870066 -0.6043824 -3.5574303 -3.7044039 -3.784369 -3.5970786 0.85885376 -0.074171424 -0.09016805 -0.065969355
0.15039779 0.5040711 0.8367149 -0.43210807 -0.64330983 -3.239884 -3.2379444 -3.3407707 0.95121986 -0.0052996147 -0.045369823 -0.0056903395
0.15873486 0.17114323 0.72345966 -1.7069566 2.7688107 -3.628973 -3.531279 -3.500988 0.89742655 -0.0428875 -0.05951788 -0.08275479
0.13603665 0.12161284 0.64640015 -1.5610896 -2.285331 -3.7936413 -3.8400185 -3.8723555 0.91027427 0.0432767 0.03932537 0.024249637
0.13995874 0.33450398 0.2567518 -1.6259546 -0.711768 -3.5660563 -3.6388242 -3.422441 1.001708 -0.0037728287 -0.004034489 -0.0013099635
