ply
format ascii 1.0
element vertex 470
property float x
property float y
property float z
property float value
property float weight
property float scale_0
property float scale_1
property float scale_2
property float rot_0
property float rot_1
property float rot_2
property float rot_3
end_header
0.087548405 0.52814496 0.6793054 -1.4922742 -2.1972246 -4.621193 -4.621193 -4.621193 1.0 0.0 0.0 0.0
0.15993227 0.52555543 0.94841737 0.57889193 -2.1972246 -3.9898667 -3.9898667 -3.9898667 1.0 0.0 0.0 0.0
0.2375723 0.30535185 0.91869926 -0.07336259 -2.1972246 -4.8556933 -4.8556933 -4.8556933 1.0 0.0 0.0 0.0
0.23100595 0.3599172 0.7381404 -1.6822335 -2.1972246 -4.604418 -4.604418 -4.604418 1.0 0.0 0.0 0.0
0.008613072 0.3786195 0.9487542 0.25356743 -2.1972246 -4.9336514 -4.9336514 -4.9336514 1.0 0.0 0.0 0.0
0.03968739 0.28126702 0.6773626 -2.4783235 -2.1972246 -4.309084 -4.309084 -4.309084 1.0 0.0 0.0 0.0
0.05015386 0.24300262 0.39058995 -2.6058638 -2.1972246 -4.358863 -4.358863 -4.358863 1.0 0.0 0.0 0.0
0.22482947 0.39968565 0.7288839 -1.6942167 -2.1972246 -4.79424 -4.79424 -4.79424 1.0 0.0 0.0 0.0
0.23729484 0.11770254 0.9560935 0.819756 -2.1972246 -4.8200808 -4.8200808 -4.8200808 1.0 0.0 0.0 0.0
0.16785502 0.49939793 0.98860157 0.93748224 -2.1972246 -4.3878365 -4.3878365 -4.3878365 1.0 0.0 0.0 0.0
0.044235233 0.24838191 0.67360216 -2.4045246 -2.1972246 -4.217741 -4.217741 -4.217741 1.0 0.0 0.0 0.0
0.16365665 0.40662146 0.7082764 -2.0986772 -2.1972246 -4.4925847 -4.4925847 -4.4925847 1.0 0.0 0.0 0.0
0.22761488 0.56293416 0.9323252 0.7474264 -2.1972246 -4.6820374 -4.6820374 -4.6820374 1.0 0.0 0.0 0.0
0.06308648 0.21593557 0.35424078 -2.0825307 -2.1972246 -4.2882676 -4.2882676 -4.2882676 1.0 0.0 0.0 0.0
0.0028964288 0.5446452 0.86957186 0.09751315 -2.1972246 -4.589606 -4.589606 -4.589606 1.0 0.0 0.0 0.0
0.04842782 0.19950432 0.7578548 -1.3595128 -2.1972246 -4.2763696 -4.2763696 -4.2763696 1.0 0.0 0.0 0.0
0.01686865 0.32356054 0.70164055 -2.099943 -2.1972246 -4.7383094 -4.7383094 -4.7383094 1.0 0.0 0.0 0.0
0.20951717 0.45993578 0.84188414 -0.5778624 -2.1972246 -4.147833 -4.147833 -4.147833 1.0 0.0 0.0 0.0
0.14901048 0.0 0.78533566 -0.03716254 -2.1972246 -4.420631 -4.420631 -4.420631 1.0 0.0 0.0 0.0
0.0066252146 0.29604185 0.75774693 -1.4776065 -2.1972246 -4.8096313 -4.8096313 -4.8096313 1.0 0.0 0.0 0.0
0.20748429 0.0056123575 0.9597004 1.795257 -2.1972246 -4.8800473 -4.8800473 -4.8800473 1.0 0.0 0.0 0.0
0.22690584 0.16086157 0.69282335 -1.5529766 -2.1972246 -4.621953 -4.621953 -4.621953 1.0 0.0 0.0 0.0
0.22073509 0.4659442 0.7568448 -1.1947329 -2.1972246 -4.331962 -4.331962 -4.331962 1.0 0.0 0.0 0.0
0.0 0.14819667 0.66787636 -1.5375772 -2.1972246 -4.729527 -4.729527 -4.729527 1.0 0.0 0.0 0.0
0.20571168 0.1776011 0.26027742 -1.0024042 -2.1972246 -4.129089 -4.129089 -4.129089 1.0 0.0 0.0 0.0
0.00903069 0.6044478 0.610445 -0.94868815 -2.1972246 -4.632441 -4.632441 -4.632441 1.0 0.0 0.0 0.0
0.011773469 0.18404414 0.9051505 0.013320854 -2.1972246 -4.4234376 -4.4234376 -4.4234376 1.0 0.0 0.0 0.0
0.009368897 0.24184641 0.96541893 0.4646994 -2.1972246 -4.9745684 -4.9745684 -4.9745684 1.0 0.0 0.0 0.0
0.16532715 0.033542424 0.8563654 0.23353326 -2.1972246 -4.336038 -4.336038 -4.336038 1.0 0.0 0.0 0.0
0.23538336 0.26141545 0.9973142 0.8059298 -2.1972246 -4.541981 -4.541981 -4.541981 1.0 0.0 0.0 0.0
0.235329 0.31188267 0.33450598 -1.9391665 -2.1972246 -4.4991565 -4.4991565 -4.4991565 1.0 0.0 0.0 0.0
0.05417723 0.41967705 0.9227378 -0.023633156 -2.1972246 -4.1571693 -4.1571693 -4.1571693 1.0 0.0 0.0 0.0
0.19285643 0.5646452 0.81473225 -0.3194531 -2.1972246 -4.2173986 -4.2173986 -4.2173986 1.0 0.0 0.0 0.0
0.16998215 0.3131667 0.34012163 -2.32805 -2.1972246 -4.1325684 -4.1325684 -4.1325684 1.0 0.0 0.0 0.0
0.1411735 0.010683549 0.6211486 -0.8656993 -2.1972246 -4.396743 -4.396743 -4.396743 1.0 0.0 0.0 0.0
0.2402235 0.4033845 0.9738042 0.5741218 -2.1972246 -4.9254284 -4.9254284 -4.9254284 1.0 0.0 0.0 0.0
0.24106108 0.26678503 0.69983894 -1.9562757 -2.1972246 -4.377571 -4.377571 -4.377571 1.0 0.0 0.0 0.0
0.044046793 0.40611622 0.80526644 -1.0686706 -2.1972246 -4.005542 -4.005542 -4.005542 1.0 0.0 0.0 0.0
0.15956233 0.62064403 0.72263396 -0.5452641 -2.1972246 -4.3357215 -4.3357215 -4.3357215 1.0 0.0 0.0 0.0
0.095193714 0.13807978 0.15561676 -0.06583757 -2.1972246 -4.5028396 -4.5028396 -4.5028396 1.0 0.0 0.0 0.0
0.05158771 0.29589254 0.3844597 -2.808386 -2.1972246 -4.337691 -4.337691 -4.337691 1.0 0.0 0.0 0.0
0.019757612 0.25469738 0.2888157 -1.4501896 -2.1972246 -4.163742 -4.163742 -4.163742 1.0 0.0 0.0 0.0
0.17896849 0.49696252 0.90726215 0.06413079 -2.1972246 -3.8933125 -3.8933125 -3.8933125 1.0 0.0 0.0 0.0
0.032613114 0.1058338 0.19652537 -0.162694 -2.1972246 -4.626284 -4.626284 -4.626284 1.0 0.0 0.0 0.0
0.002392405 0.005431683 0.5397356 -0.7510999 -2.1972246 -4.1451874 -4.1451874 -4.1451874 1.0 0.0 0.0 0.0
0.14106561 0.4508132 0.8461921 -0.6665823 -2.1972246 -3.9395514 -3.9395514 -3.9395514 1.0 0.0 0.0 0.0
0.09104825 0.17302242 0.6990189 -1.8064034 -2.1972246 -4.397272 -4.397272 -4.397272 1.0 0.0 0.0 0.0
0.0905387 0.5770688 0.6776561 -1.108562 -2.1972246 -4.099462 -4.099462 -4.099462 1.0 0.0 0.0 0.0
0.19351178 0.300095 0.74470687 -1.7948737 -2.1972246 -4.1292896 -4.1292896 -4.1292896 1.0 0.0 0.0 0.0
0.23697114 0.3273013 0.8973818 -0.2723632 -2.1972246 -4.98723 -4.98723 -4.98723 1.0 0.0 0.0 0.0
0.092859104 0.36301562 0.38101578 -2.9327905 -2.1972246 -4.3360186 -4.3360186 -4.3360186 1.0 0.0 0.0 0.0
0.0145633975 0.50061566 0.94111115 0.5115001 -2.1972246 -4.5004506 -4.5004506 -4.5004506 1.0 0.0 0.0 0.0
0.1228155 0.24052082 0.10131344 0.11220675 -2.1972246 -4.2672815 -4.2672815 -4.2672815 1.0 0.0 0.0 0.0
0.2323932 0.2975678 0.70965546 -1.9791662 -2.1972246 -4.6100025 -4.6100025 -4.6100025 1.0 0.0 0.0 0.0
0.18340771 0.49613017 0.735443 -1.2928457 -2.1972246 -4.7690463 -4.7690463 -4.7690463 1.0 0.0 0.0 0.0
0.24603176 0.3075397 0.9759356 0.533358 -2.1972246 -4.7764335 -4.7764335 -4.7764335 1.0 0.0 0.0 0.0
0.17063965 0.33680028 0.7592287 -1.7082021 -2.1972246 -4.672285 -4.672285 -4.672285 1.0 0.0 0.0 0.0
0.18436337 0.45284787 0.8397491 -0.6684798 -2.1972246 -4.4343843 -4.4343843 -4.4343843 1.0 0.0 0.0 0.0
0.02569693 0.17095761 0.9302644 0.25813806 -2.1972246 -4.5765276 -4.5765276 -4.5765276 1.0 0.0 0.0 0.0
0.16011724 0.23945725 0.67458874 -2.5334625 -2.1972246 -4.474594 -4.474594 -4.474594 1.0 0.0 0.0 0.0
0.12380199 0.34584427 0.690835 -2.6391282 -2.1972246 -4.276429 -4.276429 -4.276429 1.0 0.0 0.0 0.0
0.21177115 0.48310846 0.81750375 -0.6760954 -2.1972246 -4.264348 -4.264348 -4.264348 1.0 0.0 0.0 0.0
0.05679759 0.008679731 0.7547258 -0.2371104 -2.1972246 -4.802979 -4.802979 -4.802979 1.0 0.0 0.0 0.0
0.14040281 0.29462376 0.6906809 -2.6216192 -2.1972246 -4.5461426 -4.5461426 -4.5461426 1.0 0.0 0.0 0.0
0.1271314 0.011747103 0.8449282 0.27876598 -2.1972246 -4.376648 -4.376648 -4.376648 1.0 0.0 0.0 0.0
0.10122626 0.17345607 0.90427834 -0.0992507 -2.1972246 -4.2164445 -4.2164445 -4.2164445 1.0 0.0 0.0 0.0
0.12165945 0.52202564 0.94024795 0.4571717 -2.1972246 -4.2468257 -4.2468257 -4.2468257 1.0 0.0 0.0 0.0
0.19029772 0.27131787 0.7730992 -1.47245 -2.1972246 -4.5658913 -4.5658913 -4.5658913 1.0 0.0 0.0 0.0
0.011896779 0.18521559 0.79392344 -0.90136325 -2.1972246 -4.996528 -4.996528 -4.996528 1.0 0.0 0.0 0.0
0.1757778 0.017851025 0.5995074 -0.9475863 -2.1972246 -4.4624887 -4.4624887 -4.4624887 1.0 0.0 0.0 0.0
0.09564073 0.58693373 0.8576755 0.08455418 -2.1972246 -4.533034 -4.533034 -4.533034 1.0 0.0 0.0 0.0
0.0061627943 0.10145624 0.9625057 1.0082706 -2.1972246 -4.4740458 -4.4740458 -4.4740458 1.0 0.0 0.0 0.0
0.22870927 0.11908979 0.94844824 0.69758505 -2.1972246 -4.9049096 -4.9049096 -4.9049096 1.0 0.0 0.0 0.0
0.093112834 0.28929052 0.26194212 -1.4470525 -2.1972246 -4.26766 -4.26766 -4.26766 1.0 0.0 0.0 0.0
0.021028636 0.18594736 0.5704295 -2.5291555 -2.1972246 -4.6992664 -4.6992664 -4.6992664 1.0 0.0 0.0 0.0
0.15461397 0.17324038 0.30805063 -1.4661148 -2.1972246 -4.4864235 -4.4864235 -4.4864235 1.0 0.0 0.0 0.0
0.2377881 0.14171746 0.8524347 -0.2617217 -2.1972246 -4.8397145 -4.8397145 -4.8397145 1.0 0.0 0.0 0.0
0.1536899 0.30590445 0.14881486 -0.40305802 -2.1972246 -4.294493 -4.294493 -4.294493 1.0 0.0 0.0 0.0
0.096580975 0.074111916 0.99447423 1.5016963 -2.1972246 -4.784697 -4.784697 -4.784697 1.0 0.0 0.0 0.0
0.058393773 0.03568725 0.9490041 1.1992549 -2.1972246 -4.394756 -4.394756 -4.394756 1.0 0.0 0.0 0.0
0.09314366 0.46300563 0.74407476 -1.4672166 -2.1972246 -4.553607 -4.553607 -4.553607 1.0 0.0 0.0 0.0
0.05000004 0.22618584 0.99447423 0.7444103 -2.1972246 -4.644007 -4.644007 -4.644007 1.0 0.0 0.0 0.0
0.112426504 0.060408916 0.6008638 -1.3782009 -2.1972246 -4.649662 -4.649662 -4.649662 1.0 0.0 0.0 0.0
0.029928446 0.050066497 0.770135 -0.38864812 -2.1972246 -4.399295 -4.399295 -4.399295 1.0 0.0 0.0 0.0
0.1844096 0.19569707 0.945273 0.25683057 -2.1972246 -4.0277634 -4.0277634 -4.0277634 1.0 0.0 0.0 0.0
0.12010984 0.1440249 0.7938138 -0.89391536 -2.1972246 -4.0612454 -4.0612454 -4.0612454 1.0 0.0 0.0 0.0
0.18499534 0.2850209 0.76246357 -1.615955 -2.1972246 -4.4756565 -4.4756565 -4.4756565 1.0 0.0 0.0 0.0
0.18900296 0.04941878 0.84810346 0.09401779 -2.1972246 -4.3632526 -4.3632526 -4.3632526 1.0 0.0 0.0 0.0
0.15264148 0.04622809 0.6064591 -1.2162528 -2.1972246 -4.1497717 -4.1497717 -4.1497717 1.0 0.0 0.0 0.0
0.118021764 0.18714234 0.9762395 0.5715759 -2.1972246 -4.2521167 -4.2521167 -4.2521167 1.0 0.0 0.0 0.0
0.2382351 0.14418368 0.8295451 -0.44790715 -2.1972246 -4.3779545 -4.3779545 -4.3779545 1.0 0.0 0.0 0.0
0.21093778 0.21077007 0.10369314 0.24802019 -2.1972246 -4.637362 -4.637362 -4.637362 1.0 0.0 0.0 0.0
0.019357072 0.5094445 0.71776855 -1.2117238 -2.1972246 -4.6467237 -4.6467237 -4.6467237 1.0 0.0 0.0 0.0
0.017661598 0.06460151 0.9882624 1.6996496 -2.1972246 -4.5516343 -4.5516343 -4.5516343 1.0 0.0 0.0 0.0
0.22286738 0.45067447 0.803958 -0.8828558 -2.1972246 -4.1117764 -4.1117764 -4.1117764 1.0 0.0 0.0 0.0
0.18819457 0.2404545 0.10431346 0.13271135 -2.1972246 -4.2740417 -4.2740417 -4.2740417 1.0 0.0 0.0 0.0
0.10589099 0.04342276 0.7661013 -0.47125524 -2.1972246 -4.505061 -4.505061 -4.505061 1.0 0.0 0.0 0.0
0.237264 0.17905003 0.9392153 0.36160177 -2.1972246 -4.7550125 -4.7550125 -4.7550125 1.0 0.0 0.0 0.0
0.09044623 0.037118457 0.5879932 -1.1738135 -2.1972246 -4.3928666 -4.3928666 -4.3928666 1.0 0.0 0.0 0.0
0.11904763 0.45667863 0.6096 -2.7814739 -2.1972246 -4.499449 -4.499449 -4.499449 1.0 0.0 0.0 0.0
0.04765712 0.53279996 0.80452824 -0.5609881 -2.1972246 -4.2642126 -4.2642126 -4.2642126 1.0 0.0 0.0 0.0
0.055902787 0.0034689764 0.5639011 -0.8538147 -2.1972246 -4.7051144 -4.7051144 -4.7051144 1.0 0.0 0.0 0.0
0.14806353 0.36668393 0.73652196 -1.9558727 -2.1972246 -4.3181415 -4.3181415 -4.3181415 1.0 0.0 0.0 0.0
0.16283008 0.55880326 0.9009579 0.29243296 -2.1972246 -4.0523176 -4.0523176 -4.0523176 1.0 0.0 0.0 0.0
0.21152195 0.17464995 0.6960721 -1.6828876 -2.1972246 -5.1534276 -5.1534276 -5.1534276 1.0 0.0 0.0 0.0
0.22370201 0.2029274 0.28240687 -1.2328501 -2.1972246 -4.644775 -4.644775 -4.644775 1.0 0.0 0.0 0.0
0.24293494 0.541467 0.98903483 1.4215152 -2.1972246 -4.5458198 -4.5458198 -4.5458198 1.0 0.0 0.0 0.0
0.03520266 0.6251757 0.79117984 -0.04810159 -2.1972246 -4.7041965 -4.7041965 -4.7041965 1.0 0.0 0.0 0.0
0.049306415 0.011700866 0.5106923 -0.93498844 -2.1972246 -4.64173 -4.64173 -4.64173 1.0 0.0 0.0 0.0
0.010524945 0.5094478 0.674188 -1.4448042 -2.1972246 -4.7609296 -4.7609296 -4.7609296 1.0 0.0 0.0 0.0
0.08982801 0.34345594 0.42523077 -4.1187634 -2.1972246 -4.265056 -4.265056 -4.265056 1.0 0.0 0.0 0.0
0.03874113 0.6398815 0.7460629 -0.20856266 -2.1972246 -4.0521307 -4.0521307 -4.0521307 1.0 0.0 0.0 0.0
0.15066849 0.29086274 0.69453436 -2.5327759 -2.1972246 -4.532996 -4.532996 -4.532996 1.0 0.0 0.0 0.0
0.12990591 0.2020322 0.971939 0.47535008 -2.1972246 -4.3843346 -4.3843346 -4.3843346 1.0 0.0 0.0 0.0
0.037946343 0.2339699 0.872997 -0.46463487 -2.1972246 -4.620642 -4.620642 -4.620642 1.0 0.0 0.0 0.0
0.15113306 0.0 0.6829782 -0.5574011 -2.1972246 -4.5954223 -4.5954223 -4.5954223 1.0 0.0 0.0 0.0
0.21506545 0.029191772 1.0 2.5501232 -2.1972246 -4.1974306 -4.1974306 -4.1974306 1.0 0.0 0.0 0.0
0.1267923 0.26837382 0.7173008 -2.1822193 -2.1972246 -4.449745 -4.449745 -4.449745 1.0 0.0 0.0 0.0
0.12993674 0.031738985 0.99157643 1.9454743 -2.1972246 -4.5294776 -4.5294776 -4.5294776 1.0 0.0 0.0 0.0
0.07149783 0.0 0.9362967 1.3638988 -2.1972246 -4.4813166 -4.4813166 -4.4813166 1.0 0.0 0.0 0.0
0.05291328 0.33271158 0.6939486 -2.4041765 -2.1972246 -4.5105095 -4.5105095 -4.5105095 1.0 0.0 0.0 0.0
0.052478414 0.64003557 0.7658793 -0.123415746 -2.1972246 -4.392615 -4.392615 -4.392615 1.0 0.0 0.0 0.0
0.13607149 0.18117715 0.28244266 -1.3078637 -2.1972246 -4.2375073 -4.2375073 -4.2375073 1.0 0.0 0.0 0.0
0.12969011 0.50215703 0.91048366 0.07883147 -2.1972246 -4.2009096 -4.2009096 -4.2009096 1.0 0.0 0.0 0.0
0.17315459 0.48634735 0.7684003 -1.1170921 -2.1972246 -4.470918 -4.470918 -4.470918 1.0 0.0 0.0 0.0
0.08731193 0.64014345 0.9541794 1.5972031 -2.1972246 -4.421129 -4.421129 -4.421129 1.0 0.0 0.0 0.0
0.08813172 0.025199145 0.55465156 -1.1110173 -2.1972246 -4.4180527 -4.4180527 -4.4180527 1.0 0.0 0.0 0.0
0.19501439 0.3371354 0.9438086 0.074173555 -2.1972246 -4.2185464 -4.2185464 -4.2185464 1.0 0.0 0.0 0.0
0.01903316 0.14399606 0.18005303 -0.17819607 -2.1972246 -4.5383053 -4.5383053 -4.5383053 1.0 0.0 0.0 0.0
0.1650524 0.11580522 0.22335424 -0.4957937 -2.1972246 -4.1375704 -4.1375704 -4.1375704 1.0 0.0 0.0 0.0
0.22726037 0.0058435714 0.88529724 0.8156048 -2.1972246 -4.940824 -4.940824 -4.940824 1.0 0.0 0.0 0.0
0.19240944 0.20220175 0.17620978 -0.4270113 -2.1972246 -4.238394 -4.238394 -4.238394 1.0 0.0 0.0 0.0
0.050262082 0.0998686 0.6990352 -1.1890163 -2.1972246 -4.2638454 -4.2638454 -4.2638454 1.0 0.0 0.0 0.0
0.24347442 0.025065627 0.7028117 -0.49501956 -2.1972246 -4.123302 -4.123302 -4.123302 1.0 0.0 0.0 0.0
0.03824144 0.21870385 0.79402727 -1.0978324 -2.1972246 -4.785479 -4.785479 -4.785479 1.0 0.0 0.0 0.0
0.18367974 0.15790646 0.2685241 -1.0232717 -2.1972246 -4.5326104 -4.5326104 -4.5326104 1.0 0.0 0.0 0.0
0.24042387 0.29978743 0.89186364 -0.30678508 -2.1972246 -4.758568 -4.758568 -4.758568 1.0 0.0 0.0 0.0
0.01974958 0.46384874 0.68360525 -1.7413572 -2.1972246 -4.786278 -4.786278 -4.786278 1.0 0.0 0.0 0.0
0.119859755 0.14703947 0.863695 -0.35248283 -2.1972246 -4.0042295 -4.0042295 -4.0042295 1.0 0.0 0.0 0.0
0.2227945 0.208482 0.07502786 0.5890899 -2.1972246 -4.3302712 -4.3302712 -4.3302712 1.0 0.0 0.0 0.0
0.13861479 0.31140953 0.19970062 -0.87955016 -2.1972246 -4.309257 -4.309257 -4.309257 1.0 0.0 0.0 0.0
0.02953497 0.15664414 0.828614 -0.5655955 -2.1972246 -4.489793 -4.489793 -4.489793 1.0 0.0 0.0 0.0
0.030736351 0.17846555 0.13661171 0.039328188 -2.1972246 -4.278533 -4.278533 -4.278533 1.0 0.0 0.0 0.0
0.2218963 0.3248659 0.96660584 0.36125702 -2.1972246 -4.146232 -4.146232 -4.146232 1.0 0.0 0.0 0.0
0.24011558 0.01587804 0.7191196 -0.36129493 -2.1972246 -4.826737 -4.826737 -4.826737 1.0 0.0 0.0 0.0
0.08406826 0.38798293 0.7427161 -1.803443 -2.1972246 -4.1078577 -4.1078577 -4.1078577 1.0 0.0 0.0 0.0
0.21825399 0.38492066 0.2420635 -1.070901 -2.1972246 -4.110091 -4.110091 -4.110091 1.0 0.0 0.0 0.0
0.010894873 0.4771248 0.7686292 -1.005784 -2.1972246 -4.7910137 -4.7910137 -4.7910137 1.0 0.0 0.0 0.0
0.066724166 0.04337651 0.9009887 0.5715187 -2.1972246 -4.264912 -4.264912 -4.264912 1.0 0.0 0.0 0.0
0.03611208 0.10379916 0.25102904 -0.55889523 -2.1972246 -4.9687424 -4.9687424 -4.9687424 1.0 0.0 0.0 0.0
0.18848045 0.3286897 0.8547984 -0.7614787 -2.1972246 -4.288752 -4.288752 -4.288752 1.0 0.0 0.0 0.0
0.01510354 0.37711424 0.9669717 0.4259557 -2.1972246 -4.8179197 -4.8179197 -4.8179197 1.0 0.0 0.0 0.0
0.04222594 0.2931756 0.7938774 -1.2702234 -2.1972246 -4.463521 -4.463521 -4.463521 1.0 0.0 0.0 0.0
0.0549677 0.1474305 0.9856428 0.91544783 -2.1972246 -4.447033 -4.447033 -4.447033 1.0 0.0 0.0 0.0
0.0061165555 0.04414722 0.87185633 0.43271992 -2.1972246 -4.32594 -4.32594 -4.32594 1.0 0.0 0.0 0.0
0.10095199 0.62454677 0.9645676 1.5672562 -2.1972246 -4.4814463 -4.4814463 -4.4814463 1.0 0.0 0.0 0.0
0.13614856 0.31968683 0.7738391 -1.6039094 -2.1972246 -4.286787 -4.286787 -4.286787 1.0 0.0 0.0 0.0
0.014264628 0.24122624 0.7842358 -1.1726972 -2.1972246 -4.4577694 -4.4577694 -4.4577694 1.0 0.0 0.0 0.0
0.17583945 0.38385504 0.42950705 -3.5251622 -2.1972246 -4.412576 -4.412576 -4.412576 1.0 0.0 0.0 0.0
0.07179535 0.2617304 0.9887402 0.5664369 -2.1972246 -5.112361 -5.112361 -5.112361 1.0 0.0 0.0 0.0
0.028882947 0.22627833 0.35166666 -1.9660699 -2.1972246 -4.8550243 -4.8550243 -4.8550243 1.0 0.0 0.0 0.0
0.0660922 0.06161121 0.666928 -1.0904377 -2.1972246 -4.1662216 -4.1662216 -4.1662216 1.0 0.0 0.0 0.0
0.113289684 0.29077026 0.67266196 -2.9228528 -2.1972246 -4.799668 -4.799668 -4.799668 1.0 0.0 0.0 0.0
0.18504868 0.3672253 0.8315548 -0.9478895 -2.1972246 -4.237041 -4.237041 -4.237041 1.0 0.0 0.0 0.0
0.048218857 0.57296723 0.77042806 -0.5542786 -2.1972246 -4.531311 -4.531311 -4.531311 1.0 0.0 0.0 0.0
0.0741691 0.4034462 0.40586206 -2.9330661 -2.1972246 -4.298584 -4.298584 -4.298584 1.0 0.0 0.0 0.0
0.008937302 0.6363508 0.6792591 -0.47039977 -2.1972246 -4.4366164 -4.4366164 -4.4366164 1.0 0.0 0.0 0.0
0.19080639 0.0067067463 0.986459 2.4276185 -2.1972246 -4.6374383 -4.6374383 -4.6374383 1.0 0.0 0.0 0.0
0.2313913 0.40529585 0.9520242 0.31624398 -2.1972246 -4.716246 -4.716246 -4.716246 1.0 0.0 0.0 0.0
0.036468796 0.03916682 0.8502016 0.21481341 -2.1972246 -4.865282 -4.865282 -4.865282 1.0 0.0 0.0 0.0
0.045961592 0.22822048 0.61743385 -2.9108188 -2.1972246 -4.64141 -4.64141 -4.64141 1.0 0.0 0.0 0.0
0.18305571 0.039374035 0.9812379 1.6912019 -2.1972246 -4.3354597 -4.3354597 -4.3354597 1.0 0.0 0.0 0.0
0.1468254 0.3613757 0.17486773 -0.6283432 -2.1972246 -4.7130127 -4.7130127 -4.7130127 1.0 0.0 0.0 0.0
0.17614774 0.5007698 0.83680505 -0.5129764 -2.1972246 -4.229401 -4.229401 -4.229401 1.0 0.0 0.0 0.0
0.18835558 0.43707937 0.9888944 0.7178174 -2.1972246 -4.5023575 -4.5023575 -4.5023575 1.0 0.0 0.0 0.0
0.055456582 0.32491213 0.2862499 -1.6398335 -2.1972246 -4.738959 -4.738959 -4.738959 1.0 0.0 0.0 0.0
0.040181357 0.27381492 0.99169976 0.63995564 -2.1972246 -5.0310726 -5.0310726 -5.0310726 1.0 0.0 0.0 0.0
0.048436042 0.38900563 0.4055789 -2.8684921 -2.1972246 -4.0210075 -4.0210075 -4.0210075 1.0 0.0 0.0 0.0
0.105637416 0.18799382 0.11469979 0.117277354 -2.1972246 -4.5230775 -4.5230775 -4.5230775 1.0 0.0 0.0 0.0
0.003990818 0.32311428 0.84102666 -0.7492229 -2.1972246 -4.373262 -4.373262 -4.373262 1.0 0.0 0.0 0.0
0.017784905 0.6358884 0.9790603 2.4088578 -2.1972246 -4.6398916 -4.6398916 -4.6398916 1.0 0.0 0.0 0.0
0.07053141 0.5548419 0.71232206 -1.0663946 -2.1972246 -4.691688 -4.691688 -4.691688 1.0 0.0 0.0 0.0
0.0120197935 0.023766484 0.84623206 0.34935293 -2.1972246 -4.730324 -4.730324 -4.730324 1.0 0.0 0.0 0.0
0.18053263 0.5728943 0.9701252 1.1848426 -2.1972246 -4.6190577 -4.6190577 -4.6190577 1.0 0.0 0.0 0.0
0.16592829 0.16935466 0.82088244 -0.7706171 -2.1972246 -4.7373924 -4.7373924 -4.7373924 1.0 0.0 0.0 0.0
0.12965544 0.016479095 0.7649033 -0.2893367 -2.1972246 -4.965833 -4.965833 -4.965833 1.0 0.0 0.0 0.0
0.21178477 0.3544915 0.81436235 -1.0568155 -2.1972246 -4.4444613 -4.4444613 -4.4444613 1.0 0.0 0.0 0.0
0.16126503 0.39161962 0.440164 -3.7879941 -2.1972246 -4.622888 -4.622888 -4.622888 1.0 0.0 0.0 0.0
0.12928934 0.18308848 0.9827288 0.66264546 -2.1972246 -4.375876 -4.375876 -4.375876 1.0 0.0 0.0 0.0
0.15768184 0.2776376 0.17460673 -0.61357814 -2.1972246 -4.2140517 -4.2140517 -4.2140517 1.0 0.0 0.0 0.0
0.18023857 0.093473904 0.6962338 -1.1909617 -2.1972246 -3.926838 -3.926838 -3.926838 1.0 0.0 0.0 0.0
0.032417797 0.019243699 0.9064402 0.88296384 -2.1972246 -4.587634 -4.587634 -4.587634 1.0 0.0 0.0 0.0
0.24028513 0.24758041 0.96028614 0.4084627 -2.1972246 -4.478292 -4.478292 -4.478292 1.0 0.0 0.0 0.0
0.035341382 0.008371453 0.7642054 -0.14238466 -2.1972246 -4.833397 -4.833397 -4.833397 1.0 0.0 0.0 0.0
0.11944695 0.41528058 0.9626862 0.3076309 -2.1972246 -4.6718793 -4.6718793 -4.6718793 1.0 0.0 0.0 0.0
0.1910376 0.011562143 0.7576236 -0.2395702 -2.1972246 -4.7146893 -4.7146893 -4.7146893 1.0 0.0 0.0 0.0
0.21871385 0.0 0.9963157 3.5505426 -2.1972246 -4.28536 -4.28536 -4.28536 1.0 0.0 0.0 0.0
0.23786516 0.19751592 0.8199268 -0.7299051 -2.1972246 -4.8158755 -4.8158755 -4.8158755 1.0 0.0 0.0 0.0
0.08756382 0.5801362 0.86513585 0.10796192 -2.1972246 -4.3998585 -4.3998585 -4.3998585 1.0 0.0 0.0 0.0
0.23754145 0.1491624 0.9494656 0.58725524 -2.1972246 -4.796063 -4.796063 -4.796063 1.0 0.0 0.0 0.0
0.1323413 0.10950232 0.62302905 -1.7799078 -2.1972246 -4.306283 -4.306283 -4.306283 1.0 0.0 0.0 0.0
0.24352068 0.15210383 0.7271887 -1.1977749 -2.1972246 -4.623627 -4.623627 -4.623627 1.0 0.0 0.0 0.0
0.13905047 0.20566754 0.8548166 -0.6374455 -2.1972246 -4.1580343 -4.1580343 -4.1580343 1.0 0.0 0.0 0.0
0.07901999 0.12500092 1.0 1.210257 -2.1972246 -4.1180186 -4.1180186 -4.1180186 1.0 0.0 0.0 0.0
0.15211739 0.5053169 0.7600898 -1.1020238 -2.1972246 -4.8433886 -4.8433886 -4.8433886 1.0 0.0 0.0 0.0
0.23458913 0.28212678 0.3465927 -2.0261953 -2.1972246 -4.3268847 -4.3268847 -4.3268847 1.0 0.0 0.0 0.0
0.08892024 0.20486838 0.75611305 -1.4815928 -2.1972246 -4.313754 -4.313754 -4.313754 1.0 0.0 0.0 0.0
0.009708 0.29713625 0.6665581 -2.4112928 -2.1972246 -4.9335017 -4.9335017 -4.9335017 1.0 0.0 0.0 0.0
0.17001298 0.04630516 0.99422765 1.8523678 -2.1972246 -4.4804406 -4.4804406 -4.4804406 1.0 0.0 0.0 0.0
0.20400396 0.069856346 0.9973142 1.7287784 -2.1972246 -5.013733 -5.013733 -5.013733 1.0 0.0 0.0 0.0
0.19392002 0.0681313 0.6706582 -1.0979137 -2.1972246 -4.403719 -4.403719 -4.403719 1.0 0.0 0.0 0.0
0.0029118415 0.50084263 0.90398806 0.18452662 -2.1972246 -4.778502 -4.778502 -4.778502 1.0 0.0 0.0 0.0
0.027896453 0.45432758 0.9801393 0.73119867 -2.1972246 -4.4309907 -4.4309907 -4.4309907 1.0 0.0 0.0 0.0
0.13989414 0.33917 0.19760433 -0.8566335 -2.1972246 -4.446793 -4.446793 -4.446793 1.0 0.0 0.0 0.0
0.24205635 0.42863634 0.82798743 -0.7037256 -2.1972246 -4.915779 -4.915779 -4.915779 1.0 0.0 0.0 0.0
0.005515413 0.5979393 0.80442035 -0.077050604 -2.1972246 -4.4620795 -4.4620795 -4.4620795 1.0 0.0 0.0 0.0
0.1595161 0.15571332 0.11430739 0.24816883 -2.1972246 -4.6355977 -4.6355977 -4.6355977 1.0 0.0 0.0 0.0
0.06965067 0.64000475 0.87531453 0.6379312 -2.1972246 -5.0463495 -5.0463495 -5.0463495 1.0 0.0 0.0 0.0
0.13949339 0.02190489 0.64618087 -0.8856638 -2.1972246 -4.6085286 -4.6085286 -4.6085286 1.0 0.0 0.0 0.0
0.0175537 0.19091876 0.70930094 -1.6066195 -2.1972246 -4.5551767 -4.5551767 -4.5551767 1.0 0.0 0.0 0.0
0.069477126 0.29982987 0.99716 0.631412 -2.1972246 -4.575792 -4.575792 -4.575792 1.0 0.0 0.0 0.0
0.13295412 0.6428572 0.82738423 0.23724662 -2.1972246 -4.198895 -4.198895 -4.198895 1.0 0.0 0.0 0.0
0.008567373 0.07808871 0.81687486 -0.20512007 -2.1972246 -4.1124268 -4.1124268 -4.1124268 1.0 0.0 0.0 0.0
0.04824912 0.09307689 0.6176631 -1.5245663 -2.1972246 -4.463311 -4.463311 -4.463311 1.0 0.0 0.0 0.0
0.0028964288 0.058914695 0.6850449 -0.8240341 -2.1972246 -4.478609 -4.478609 -4.478609 1.0 0.0 0.0 0.0
0.22075568 0.40893355 0.96626675 0.44869852 -2.1972246 -4.161288 -4.161288 -4.161288 1.0 0.0 0.0 0.0
0.095902756 0.009450429 0.6474756 -0.7687268 -2.1972246 -4.997245 -4.997245 -4.997245 1.0 0.0 0.0 0.0
0.036990676 0.5718127 0.8529897 0.034329407 -2.1972246 -4.4668126 -4.4668126 -4.4668126 1.0 0.0 0.0 0.0
0.24339737 0.52742445 0.7735437 -0.68906033 -2.1972246 -4.3872724 -4.3872724 -4.3872724 1.0 0.0 0.0 0.0
0.07720566 0.63716775 0.79774606 0.015217163 -2.1972246 -4.653311 -4.653311 -4.653311 1.0 0.0 0.0 0.0
0.08689966 0.42437315 0.67243534 -2.4040828 -2.1972246 -5.029358 -5.029358 -5.029358 1.0 0.0 0.0 0.0
0.020835906 0.6199322 1.0 2.8302755 -2.1972246 -4.262686 -4.262686 -4.262686 1.0 0.0 0.0 0.0
0.054994162 0.20251004 0.9057516 -0.12856732 -2.1972246 -4.448118 -4.448118 -4.448118 1.0 0.0 0.0 0.0
0.23220824 0.3403415 0.75084144 -1.580125 -2.1972246 -5.0344925 -5.0344925 -5.0344925 1.0 0.0 0.0 0.0
0.1296747 0.54257244 0.9885861 1.1721563 -2.1972246 -4.746052 -4.746052 -4.746052 1.0 0.0 0.0 0.0
0.12038009 0.6373835 0.8510475 0.37419778 -2.1972246 -4.6804233 -4.6804233 -4.6804233 1.0 0.0 0.0 0.0
0.21653226 0.19225977 0.8251212 -0.7300582 -2.1972246 -4.7110753 -4.7110753 -4.7110753 1.0 0.0 0.0 0.0
0.23514403 0.32041752 0.32700938 -1.8670712 -2.1972246 -4.3148403 -4.3148403 -4.3148403 1.0 0.0 0.0 0.0
0.20192412 0.2854573 0.3537905 -2.3131585 -2.1972246 -4.347643 -4.347643 -4.347643 1.0 0.0 0.0 0.0
0.08477389 0.0103136115 0.65727884 -0.7320662 -2.1972246 -5.397304 -5.397304 -5.397304 1.0 0.0 0.0 0.0
0.022719683 0.4328623 0.9760882 0.6267248 -2.1972246 -4.2645297 -4.2645297 -4.2645297 1.0 0.0 0.0 0.0
0.0069180797 0.120292075 0.6515911 -1.4516249 -2.1972246 -4.6643763 -4.6643763 -4.6643763 1.0 0.0 0.0 0.0
0.11008359 0.36087286 0.24084044 -1.2440265 -2.1972246 -4.1516886 -4.1516886 -4.1516886 1.0 0.0 0.0 0.0
0.04489803 0.42362303 0.8599259 -0.5563951 -2.1972246 -4.0612583 -4.0612583 -4.0612583 1.0 0.0 0.0 0.0
0.09223425 0.33673465 0.76269484 -1.7009197 -2.1972246 -4.4993176 -4.4993176 -4.4993176 1.0 0.0 0.0 0.0
0.24030054 0.24828944 0.9262059 0.064709105 -2.1972246 -4.791037 -4.791037 -4.791037 1.0 0.0 0.0 0.0
0.13337249 0.13188604 0.97556794 0.80157685 -2.1972246 -4.2999334 -4.2999334 -4.2999334 1.0 0.0 0.0 0.0
0.025322327 0.22264065 0.75441754 -1.4096138 -2.1972246 -4.335233 -4.335233 -4.335233 1.0 0.0 0.0 0.0
0.14098854 0.015924286 0.8492287 0.28497943 -2.1972246 -4.3613324 -4.3613324 -4.3613324 1.0 0.0 0.0 0.0
0.008598198 0.16688843 0.92410964 0.25689262 -2.1972246 -5.002839 -5.002839 -5.002839 1.0 0.0 0.0 0.0
0.07386793 0.55937964 0.6930268 -1.1469178 -2.1972246 -4.2966824 -4.2966824 -4.2966824 1.0 0.0 0.0 0.0
0.13308118 0.10759099 0.6918986 -1.380018 -2.1972246 -4.05767 -4.05767 -4.05767 1.0 0.0 0.0 0.0
0.21708716 0.5568457 0.85537887 -0.01569344 -2.1972246 -4.3299174 -4.3299174 -4.3299174 1.0 0.0 0.0 0.0
0.10817227 0.24771912 0.21483712 -0.94109726 -2.1972246 -4.1278915 -4.1278915 -4.1278915 1.0 0.0 0.0 0.0
0.00548458 0.56926936 0.8045437 -0.25468802 -2.1972246 -4.627969 -4.627969 -4.627969 1.0 0.0 0.0 0.0
0.08860983 0.6132677 0.7091019 -0.6706557 -2.1972246 -4.45276 -4.45276 -4.45276 1.0 0.0 0.0 0.0
0.22306776 0.31179488 0.71785563 -1.9603597 -2.1972246 -4.823315 -4.823315 -4.823315 1.0 0.0 0.0 0.0
0.237264 0.5015713 0.92894953 0.4075426 -2.1972246 -4.89723 -4.89723 -4.89723 1.0 0.0 0.0 0.0
0.24067049 0.60006636 0.88185996 0.53257227 -2.1972246 -4.8155046 -4.8155046 -4.8155046 1.0 0.0 0.0 0.0
0.12047258 0.39798963 0.9547988 0.19011357 -2.1972246 -4.608709 -4.608709 -4.608709 1.0 0.0 0.0 0.0
0.017009335 0.5616872 0.99432135 1.6457735 -2.1972246 -4.58158 -4.58158 -4.58158 1.0 0.0 0.0 0.0
0.10245456 0.60514325 0.718223 -0.69674605 -2.1972246 -4.42684 -4.42684 -4.42684 1.0 0.0 0.0 0.0
0.02448997 0.20668723 0.8406739 -0.63675773 -2.1972246 -4.366146 -4.366146 -4.366146 1.0 0.0 0.0 0.0
0.14999786 0.39221314 0.9353769 -0.004880996 -2.1972246 -4.359672 -4.359672 -4.359672 1.0 0.0 0.0 0.0
0.22493286 0.18270312 0.8087054 -0.8038333 -2.1972246 -4.4489565 -4.4489565 -4.4489565 1.0 0.0 0.0 0.0
0.15804346 0.5016234 0.9047457 0.038542558 -2.1972246 -4.2885265 -4.2885265 -4.2885265 1.0 0.0 0.0 0.0
0.14729282 0.53400224 0.79790026 -0.667817 -2.1972246 -4.338493 -4.338493 -4.338493 1.0 0.0 0.0 0.0
0.052767448 0.25696793 0.81451166 -1.0536819 -2.1972246 -4.457268 -4.457268 -4.457268 1.0 0.0 0.0 0.0
0.006486492 0.48399943 0.7413927 -1.1520795 -2.1972246 -4.7267385 -4.7267385 -4.7267385 1.0 0.0 0.0 0.0
0.09379174 0.59285706 0.69822663 -0.885836 -2.1972246 -4.513596 -4.513596 -4.513596 1.0 0.0 0.0 0.0
0.05784573 0.3605954 0.4319733 -3.680883 -2.1972246 -4.255098 -4.255098 -4.255098 1.0 0.0 0.0 0.0
0.10635341 0.26282477 0.8709315 -0.6246727 -2.1972246 -4.05138 -4.05138 -4.05138 1.0 0.0 0.0 0.0
0.14898416 0.30054688 0.35083255 -2.5247903 -2.1972246 -4.042 -4.042 -4.042 1.0 0.0 0.0 0.0
0.10579542 0.0 0.7250064 -0.3750278 -2.1972246 -5.0446415 -5.0446415 -5.0446415 1.0 0.0 0.0 0.0
0.0 0.51517266 0.90113604 0.23093894 -2.1972246 -4.5963945 -4.5963945 -4.5963945 1.0 0.0 0.0 0.0
0.12451103 0.4490406 0.86196065 -0.5422654 -2.1972246 -4.2213416 -4.2213416 -4.2213416 1.0 0.0 0.0 0.0
0.12149643 0.098014675 0.59807634 -1.765964 -2.1972246 -4.239307 -4.239307 -4.239307 1.0 0.0 0.0 0.0
0.09648849 0.113617845 0.9176512 0.2783263 -2.1972246 -4.3177643 -4.3177643 -4.3177643 1.0 0.0 0.0 0.0
0.22527197 0.042590402 0.78570783 -0.22183853 -2.1972246 -5.1582994 -5.1582994 -5.1582994 1.0 0.0 0.0 0.0
0.17206618 0.3313865 0.9327442 -0.06848555 -2.1972246 -4.266687 -4.266687 -4.266687 1.0 0.0 0.0 0.0
0.11592546 0.1776011 0.21670221 -0.74577576 -2.1972246 -4.043885 -4.043885 -4.043885 1.0 0.0 0.0 0.0
0.024582066 0.6307063 0.88157946 0.7097133 -2.1972246 -4.4901967 -4.4901967 -4.4901967 1.0 0.0 0.0 0.0
0.1354241 0.31255016 0.41250545 -3.8976862 -2.1972246 -4.2634397 -4.2634397 -4.2634397 1.0 0.0 0.0 0.0
0.124464795 0.22808176 0.73582834 -1.808277 -2.1972246 -4.1258125 -4.1258125 -4.1258125 1.0 0.0 0.0 0.0
0.05564733 0.5082233 0.8652949 -0.23084813 -2.1972246 -4.6280074 -4.6280074 -4.6280074 1.0 0.0 0.0 0.0
0.20756134 0.58274114 0.86407226 0.18525302 -2.1972246 -4.428907 -4.428907 -4.428907 1.0 0.0 0.0 0.0
0.066548415 0.5176261 0.8596835 -0.24937989 -2.1972246 -4.6386437 -4.6386437 -4.6386437 1.0 0.0 0.0 0.0
0.056196447 0.4794523 0.85651946 -0.42360651 -2.1972246 -4.29895 -4.29895 -4.29895 1.0 0.0 0.0 0.0
0.08808789 0.20459092 0.26283613 -1.2240574 -2.1972246 -4.5504255 -4.5504255 -4.5504255 1.0 0.0 0.0 0.0
0.11150396 0.20652036 0.97627157 0.5121035 -2.1972246 -4.5712214 -4.5712214 -4.5712214 1.0 0.0 0.0 0.0
0.08696686 0.21245512 0.729701 -1.7627864 -2.1972246 -4.200452 -4.200452 -4.200452 1.0 0.0 0.0 0.0
0.23143753 0.04803152 0.8935746 0.57767683 -2.1972246 -4.560555 -4.560555 -4.560555 1.0 0.0 0.0 0.0
0.24313533 0.05922503 0.8095154 -0.12668793 -2.1972246 -4.329506 -4.329506 -4.329506 1.0 0.0 0.0 0.0
0.1794392 0.25733966 0.2672923 -1.3982781 -2.1972246 -4.0267754 -4.0267754 -4.0267754 1.0 0.0 0.0 0.0
0.13158603 0.5172319 0.7088539 -1.406425 -2.1972246 -4.233378 -4.233378 -4.233378 1.0 0.0 0.0 0.0
0.07406121 0.60678685 0.79490995 -0.21559146 -2.1972246 -4.382101 -4.382101 -4.382101 1.0 0.0 0.0 0.0
0.0033126033 0.5010314 0.8109645 -0.5624617 -2.1972246 -4.5543947 -4.5543947 -4.5543947 1.0 0.0 0.0 0.0
0.11515805 0.51939493 0.9729937 0.8140072 -2.1972246 -4.7674203 -4.7674203 -4.7674203 1.0 0.0 0.0 0.0
0.0 0.6323016 0.86704475 0.66003585 -2.1972246 -4.4278493 -4.4278493 -4.4278493 1.0 0.0 0.0 0.0
0.02740321 0.49343276 0.82792664 -0.53490376 -2.1972246 -4.467787 -4.467787 -4.467787 1.0 0.0 0.0 0.0
0.092712075 0.23512593 0.10285483 0.11835952 -2.1972246 -4.4370685 -4.4370685 -4.4370685 1.0 0.0 0.0 0.0
0.069884025 0.14231859 0.5965325 -2.1846788 -2.1972246 -4.6121435 -4.6121435 -4.6121435 1.0 0.0 0.0 0.0
0.15602356 0.4396915 0.9749349 0.5187913 -2.1972246 -4.5601873 -4.5601873 -4.5601873 1.0 0.0 0.0 0.0
0.039995465 0.6114937 0.78224033 -0.20968585 -2.1972246 -4.329284 -4.329284 -4.329284 1.0 0.0 0.0 0.0
0.042030882 0.35326362 0.29267102 -1.6401399 -2.1972246 -4.095789 -4.095789 -4.095789 1.0 0.0 0.0 0.0
0.14851053 0.60040545 0.9070618 0.6050798 -2.1972246 -4.595976 -4.595976 -4.595976 1.0 0.0 0.0 0.0
0.21231173 0.14595269 0.8425412 -0.4208547 -2.1972246 -4.475109 -4.475109 -4.475109 1.0 0.0 0.0 0.0
0.13670485 0.16900696 0.6476009 -2.2325287 -2.1972246 -4.5098124 -4.5098124 -4.5098124 1.0 0.0 0.0 0.0
0.07484084 0.0 0.9547723 1.6681895 -2.1972246 -4.4733663 -4.4733663 -4.4733663 1.0 0.0 0.0 0.0
0.22784187 0.05550602 0.87574065 0.35761812 -2.1972246 -4.8322353 -4.8322353 -4.8322353 1.0 0.0 0.0 0.0
0.006810183 0.10993391 0.65265465 -1.366253 -2.1972246 -4.5091515 -4.5091515 -4.5091515 1.0 0.0 0.0 0.0
0.018334001 0.33964437 0.9591356 0.2999734 -2.1972246 -4.476184 -4.476184 -4.476184 1.0 0.0 0.0 0.0
0.083186254 0.06586546 0.74729633 -0.72165614 -2.1972246 -4.1294894 -4.1294894 -4.1294894 1.0 0.0 0.0 0.0
0.18908004 0.27076298 0.99163806 0.61069095 -2.1972246 -4.500022 -4.500022 -4.500022 1.0 0.0 0.0 0.0
0.1029504 0.5754064 1.0 1.6747966 -2.1972246 -4.3312125 -4.3312125 -4.3312125 1.0 0.0 0.0 0.0
0.11170151 0.34586886 0.43928847 -5.130293 -2.1972246 -4.5087442 -4.5087442 -4.5087442 1.0 0.0 0.0 0.0
0.055672377 0.050405275 0.8912933 0.44937444 -2.1972246 -4.4258213 -4.4258213 -4.4258213 1.0 0.0 0.0 0.0
0.1909451 0.14876162 0.8505234 -0.41083 -2.1972246 -4.2773967 -4.2773967 -4.2773967 1.0 0.0 0.0 0.0
0.0 0.41865388 0.6609976 -2.084556 -2.1972246 -4.4318047 -4.4318047 -4.4318047 1.0 0.0 0.0 0.0
0.22100568 0.45162868 0.89500576 -0.1322085 -2.1972246 -4.892174 -4.892174 -4.892174 1.0 0.0 0.0 0.0
0.015704025 0.11119786 0.897351 0.23334354 -2.1972246 -4.5871277 -4.5871277 -4.5871277 1.0 0.0 0.0 0.0
0.23055893 0.28349492 0.24097916 -1.0629265 -2.1972246 -4.538356 -4.538356 -4.538356 1.0 0.0 0.0 0.0
0.23097514 0.16052248 0.9312617 0.33338454 -2.1972246 -4.5947847 -4.5947847 -4.5947847 1.0 0.0 0.0 0.0
0.22382304 0.08126398 0.68705857 -1.0399871 -2.1972246 -4.2577066 -4.2577066 -4.2577066 1.0 0.0 0.0 0.0
0.1004156 0.6428572 0.88379705 0.71073544 -2.1972246 -4.2192216 -4.2192216 -4.2192216 1.0 0.0 0.0 0.0
0.09010711 0.56156236 0.87930125 0.11306395 -2.1972246 -4.268013 -4.268013 -4.268013 1.0 0.0 0.0 0.0
0.0 0.20352782 0.6368965 -2.1329153 -2.1972246 -4.417848 -4.417848 -4.417848 1.0 0.0 0.0 0.0
0.01676485 0.13395996 0.7035012 -1.29692 -2.1972246 -4.5168867 -4.5168867 -4.5168867 1.0 0.0 0.0 0.0
0.0891977 0.37610182 0.43733737 -4.063057 -2.1972246 -4.754834 -4.754834 -4.754834 1.0 0.0 0.0 0.0
0.19594061 0.24741621 0.7412586 -1.7047205 -2.1972246 -4.190106 -4.190106 -4.190106 1.0 0.0 0.0 0.0
0.17261602 0.3641345 0.39103892 -3.0035844 -2.1972246 -4.5015054 -4.5015054 -4.5015054 1.0 0.0 0.0 0.0
0.1291455 0.42658082 0.8693258 -0.5442569 -2.1972246 -4.1734757 -4.1734757 -4.1734757 1.0 0.0 0.0 0.0
0.18068244 0.6184355 0.7903014 -0.15334998 -2.1972246 -4.306407 -4.306407 -4.306407 1.0 0.0 0.0 0.0
0.19980782 0.3560715 0.24190006 -1.1647276 -2.1972246 -4.2427416 -4.2427416 -4.2427416 1.0 0.0 0.0 0.0
0.13380292 0.38512227 0.8715707 -0.61294436 -2.1972246 -4.17799 -4.17799 -4.17799 1.0 0.0 0.0 0.0
0.17044762 0.21825129 1.0 0.79515547 -2.1972246 -4.4133577 -4.4133577 -4.4133577 1.0 0.0 0.0 0.0
0.18100312 0.24192348 0.093714364 0.22640818 -2.1972246 -4.267239 -4.267239 -4.267239 1.0 0.0 0.0 0.0
0.24319698 0.58714557 0.9073242 0.69363546 -2.1972246 -4.3737106 -4.3737106 -4.3737106 1.0 0.0 0.0 0.0
0.079373114 0.04946146 0.9911257 1.7334106 -2.1972246 -4.5893817 -4.5893817 -4.5893817 1.0 0.0 0.0 0.0
0.21449763 0.31117833 0.26462415 -1.351466 -2.1972246 -4.2069116 -4.2069116 -4.2069116 1.0 0.0 0.0 0.0
0.09118609 0.16197138 0.82464343 -0.720376 -2.1972246 -4.5064926 -4.5064926 -4.5064926 1.0 0.0 0.0 0.0
0.16082628 0.38957363 0.9885245 0.56242645 -2.1972246 -4.5016227 -4.5016227 -4.5016227 1.0 0.0 0.0 0.0
0.018093184 0.011716278 0.6188365 -0.73352337 -2.1972246 -4.3750443 -4.3750443 -4.3750443 1.0 0.0 0.0 0.0
0.23692682 0.16747229 0.96654075 0.70102996 -2.1972246 -4.585386 -4.585386 -4.585386 1.0 0.0 0.0 0.0
0.14417921 0.074373946 0.9239709 0.55707175 -2.1972246 -4.375011 -4.375011 -4.375011 1.0 0.0 0.0 0.0
0.07127128 0.0072154053 0.50864226 -0.93351644 -2.1972246 -4.47667 -4.47667 -4.47667 1.0 0.0 0.0 0.0
0.18518029 0.13943619 0.9740353 0.795654 -2.1972246 -4.607079 -4.607079 -4.607079 1.0 0.0 0.0 0.0
0.15392083 0.0067067463 0.64889365 -0.73768985 -2.1972246 -4.5748873 -4.5748873 -4.5748873 1.0 0.0 0.0 0.0
0.211384 0.34647626 0.9394002 0.06617573 -2.1972246 -4.4254875 -4.4254875 -4.4254875 1.0 0.0 0.0 0.0
0.06342856 0.3742189 0.26811847 -1.424018 -2.1972246 -4.3066483 -4.3066483 -4.3066483 1.0 0.0 0.0 0.0
0.0 0.06914658 0.7321097 -0.6512217 -2.1972246 -4.5685816 -4.5685816 -4.5685816 1.0 0.0 0.0 0.0
0.07963726 0.101357765 0.70347995 -1.2305053 -2.1972246 -4.2373238 -4.2373238 -4.2373238 1.0 0.0 0.0 0.0
0.24603176 0.22419052 0.8590316 -0.46284086 -2.1972246 -4.329124 -4.329124 -4.329124 1.0 0.0 0.0 0.0
0.22425735 0.16921808 0.6906311 -1.6347289 -2.1972246 -4.462336 -4.462336 -4.462336 1.0 0.0 0.0 0.0
0.19518374 0.43423498 0.72777385 -1.6721503 -2.1972246 -4.7167974 -4.7167974 -4.7167974 1.0 0.0 0.0 0.0
0.21432807 0.14510854 0.98399276 0.9591521 -2.1972246 -4.6494184 -4.6494184 -4.6494184 1.0 0.0 0.0 0.0
0.09583247 0.23053129 0.077140644 0.39370352 -2.1972246 -4.6674137 -4.6674137 -4.6674137 1.0 0.0 0.0 0.0
0.017599938 0.36189017 0.76542306 -1.4351473 -2.1972246 -5.2766414 -5.2766414 -5.2766414 1.0 0.0 0.0 0.0
0.07204453 0.0 0.49312085 -0.8587933 -2.1972246 -4.407868 -4.407868 -4.407868 1.0 0.0 0.0 0.0
0.15573967 0.027962573 0.8507238 0.21925607 -2.1972246 -4.755802 -4.755802 -4.755802 1.0 0.0 0.0 0.0
0.2409127 0.5833573 0.74786663 -0.5160567 -2.1972246 -4.644025 -4.644025 -4.644025 1.0 0.0 0.0 0.0
0.048488777 0.16538715 0.8254619 -0.66788954 -2.1972246 -4.3253045 -4.3253045 -4.3253045 1.0 0.0 0.0 0.0
0.20235701 0.0 0.5805582 -0.7759142 -2.1972246 -4.562605 -4.562605 -4.562605 1.0 0.0 0.0 0.0
0.16283792 0.0028061827 0.81806684 0.1672253 -2.1972246 -4.9218235 -4.9218235 -4.9218235 1.0 0.0 0.0 0.0
0.099546075 0.34894815 0.35102904 -2.5192308 -2.1972246 -4.7168713 -4.7168713 -4.7168713 1.0 0.0 0.0 0.0
0.04187867 0.6428572 0.6387481 -0.63891643 -2.1972246 -4.306441 -4.306441 -4.306441 1.0 0.0 0.0 0.0
0.09706349 0.0032840082 0.64870745 -0.7130481 -2.1972246 -5.1341367 -5.1341367 -5.1341367 1.0 0.0 0.0 0.0
0.23809233 0.17947195 0.8062919 -0.7710217 -2.1972246 -4.8304477 -4.8304477 -4.8304477 1.0 0.0 0.0 0.0
0.023549723 0.5107272 0.7445218 -1.0407515 -2.1972246 -3.962632 -3.962632 -3.962632 1.0 0.0 0.0 0.0
0.10881963 0.19845617 0.28854656 -1.4437897 -2.1972246 -4.1694465 -4.1694465 -4.1694465 1.0 0.0 0.0 0.0
0.21186183 0.3777203 0.36936188 -2.3687325 -2.1972246 -4.183955 -4.183955 -4.183955 1.0 0.0 0.0 0.0
0.16039468 0.34595218 0.7950949 -1.3524876 -2.1972246 -4.2544646 -4.2544646 -4.2544646 1.0 0.0 0.0 0.0
0.14615221 0.3749612 0.729894 -2.012732 -2.1972246 -4.6375346 -4.6375346 -4.6375346 1.0 0.0 0.0 0.0
0.23431994 0.071830645 0.8771433 0.28472614 -2.1972246 -4.782942 -4.782942 -4.782942 1.0 0.0 0.0 0.0
0.0340312 0.47077423 0.98864776 0.88819444 -2.1972246 -4.418441 -4.418441 -4.418441 1.0 0.0 0.0 0.0
0.2373719 0.07781126 0.7597199 -0.57476646 -2.1972246 -4.2359056 -4.2359056 -4.2359056 1.0 0.0 0.0 0.0
0.23228559 0.11507981 1.0 1.4604561 -2.1972246 -4.445774 -4.445774 -4.445774 1.0 0.0 0.0 0.0
0.19692536 0.39094263 0.33461955 -2.0066218 -2.1972246 -4.622568 -4.622568 -4.622568 1.0 0.0 0.0 0.0
0.10374677 0.56871945 0.8145967 -0.3508127 -2.1972246 -4.2870355 -4.2870355 -4.2870355 1.0 0.0 0.0 0.0
0.0055770637 0.46704412 0.8977672 -0.008254528 -2.1972246 -4.7629375 -4.7629375 -4.7629375 1.0 0.0 0.0 0.0
0.1512388 0.19672981 0.3279292 -1.782984 -2.1972246 -4.7854276 -4.7854276 -4.7854276 1.0 0.0 0.0 0.0
0.062362026 0.14285809 0.64015394 -1.9242122 -2.1972246 -4.454777 -4.454777 -4.454777 1.0 0.0 0.0 0.0
0.011619334 0.50869256 0.98109496 1.0399555 -2.1972246 -4.707062 -4.707062 -4.707062 1.0 0.0 0.0 0.0
0.23564805 0.6428572 0.92663085 1.4034606 -2.1972246 -4.2326794 -4.2326794 -4.2326794 1.0 0.0 0.0 0.0
0.02294858 0.10211904 0.5243028 -1.7040329 -2.1972246 -4.7654867 -4.7654867 -4.7654867 1.0 0.0 0.0 0.0
0.17341946 0.043083657 0.6487087 -1.0228741 -2.1972246 -4.6523128 -4.6523128 -4.6523128 1.0 0.0 0.0 0.0
0.029576058 0.009423484 0.88903016 0.7925649 -2.1972246 -4.8976364 -4.8976364 -4.8976364 1.0 0.0 0.0 0.0
0.05064743 0.16261876 0.8804573 -0.21160725 -2.1972246 -4.539931 -4.539931 -4.539931 1.0 0.0 0.0 0.0
0.038180556 0.15912631 0.9827999 0.8586132 -2.1972246 -4.377866 -4.377866 -4.377866 1.0 0.0 0.0 0.0
0.062562406 0.5227963 0.8838792 -0.019880936 -2.1972246 -3.867487 -3.867487 -3.867487 1.0 0.0 0.0 0.0
0.067941874 0.49842685 0.929412 0.27682036 -2.1972246 -4.1802945 -4.1802945 -4.1802945 1.0 0.0 0.0 0.0
0.076494515 0.11158154 0.977729 0.97462094 -2.1972246 -4.59131 -4.59131 -4.59131 1.0 0.0 0.0 0.0
0.045991067 0.3413892 0.8035994 -1.1968099 -2.1972246 -4.259737 -4.259737 -4.259737 1.0 0.0 0.0 0.0
0.23388836 0.24143024 0.7385104 -1.5601847 -2.1972246 -4.372876 -4.372876 -4.372876 1.0 0.0 0.0 0.0
0.24362858 0.30417117 0.7805553 -1.2616082 -2.1972246 -4.3918724 -4.3918724 -4.3918724 1.0 0.0 0.0 0.0
0.1565566 0.03189313 0.5801167 -1.1395916 -2.1972246 -4.560843 -4.560843 -4.560843 1.0 0.0 0.0 0.0
0.008965032 0.027201898 0.9683141 1.8021615 -2.1972246 -4.8859615 -4.8859615 -4.8859615 1.0 0.0 0.0 0.0
0.23487484 0.5678358 0.81958765 -0.1752187 -2.1972246 -4.524659 -4.524659 -4.524659 1.0 0.0 0.0 0.0
0.101313055 0.3442258 0.2256577 -1.1115687 -2.1972246 -4.414234 -4.414234 -4.414234 1.0 0.0 0.0 0.0
0.006948905 0.19094959 0.6288093 -2.142316 -2.1972246 -4.5040755 -4.5040755 -4.5040755 1.0 0.0 0.0 0.0
0.13761288 0.28617692 0.30285072 -1.89338 -2.1972246 -4.3094497 -4.3094497 -4.3094497 1.0 0.0 0.0 0.0
0.18080275 0.58676416 0.8013684 -0.29395446 -2.1972246 -4.2592893 -4.2592893 -4.2592893 1.0 0.0 0.0 0.0
0.14135084 0.53309953 0.9727065 0.8932242 -2.1972246 -4.295578 -4.295578 -4.295578 1.0 0.0 0.0 0.0
0.206729 0.5443296 0.9346373 0.606523 -2.1972246 -4.407925 -4.407925 -4.407925 1.0 0.0 0.0 0.0
0.18132682 0.21689124 0.68631876 -2.1671207 -2.1972246 -4.7435894 -4.7435894 -4.7435894 1.0 0.0 0.0 0.0
0.15176287 0.04883305 0.9385833 0.9007144 -2.1972246 -4.411499 -4.411499 -4.411499 1.0 0.0 0.0 0.0
0.0027731194 0.15099724 0.98086745 0.97705674 -2.1972246 -4.9244633 -4.9244633 -4.9244633 1.0 0.0 0.0 0.0
0.060466114 0.2482432 0.19347338 -0.70103455 -2.1972246 -4.5131497 -4.5131497 -4.5131497 1.0 0.0 0.0 0.0
0.012158819 0.05351889 0.9613651 1.3530984 -2.1972246 -4.93826 -4.93826 -4.93826 1.0 0.0 0.0 0.0
0.18424082 0.16924493 0.30758297 -1.3877319 -2.1972246 -4.5951824 -4.5951824 -4.5951824 1.0 0.0 0.0 0.0
0.06830377 0.02972678 0.73018175 -0.54176223 -2.1972246 -4.242526 -4.242526 -4.242526 1.0 0.0 0.0 0.0
0.09351359 0.3275017 0.7225415 -2.1779041 -2.1972246 -4.1635404 -4.1635404 -4.1635404 1.0 0.0 0.0 0.0
0.24216427 0.12389384 0.8055482 -0.5175043 -2.1972246 -3.967444 -3.967444 -3.967444 1.0 0.0 0.0 0.0
0.22505616 0.045966055 0.8040967 -0.1261486 -2.1972246 -4.7326636 -4.7326636 -4.7326636 1.0 0.0 0.0 0.0
0.054918144 0.021549739 0.74693733 -0.3718851 -2.1972246 -4.5911326 -4.5911326 -4.5911326 1.0 0.0 0.0 0.0
0.12427465 0.11509463 0.60947305 -1.9028765 -2.1972246 -4.2823253 -4.2823253 -4.2823253 1.0 0.0 0.0 0.0
0.099093445 0.111105375 0.704538 -1.3189439 -2.1972246 -4.012054 -4.012054 -4.012054 1.0 0.0 0.0 0.0
0.026647922 0.19093418 0.27965274 -1.1751956 -2.1972246 -4.439183 -4.439183 -4.439183 1.0 0.0 0.0 0.0
0.003441151 0.63934386 0.8134974 0.2817787 -2.1972246 -4.6306863 -4.6306863 -4.6306863 1.0 0.0 0.0 0.0
0.022779025 0.10734437 0.72493064 -1.0121021 -2.1972246 -4.5122952 -4.5122952 -4.5122952 1.0 0.0 0.0 0.0
0.17451386 0.11650025 0.87745166 -0.06874639 -2.1972246 -4.5738664 -4.5738664 -4.5738664 1.0 0.0 0.0 0.0
0.03377289 0.50448644 0.65441555 -1.6945117 -2.1972246 -4.3483014 -4.3483014 -4.3483014 1.0 0.0 0.0 0.0
0.013715628 0.14840712 0.6472752 -1.7264599 -2.1972246 -4.8180304 -4.8180304 -4.8180304 1.0 0.0 0.0 0.0
0.21430345 0.0 0.93819034 1.5011364 -2.1972246 -4.711442 -4.711442 -4.711442 1.0 0.0 0.0 0.0
0.1068254 0.15863302 0.6199785 -2.3281379 -2.1972246 -4.4015207 -4.4015207 -4.4015207 1.0 0.0 0.0 0.0
0.22257808 0.1647295 0.19122177 -0.3629724 -2.1972246 -4.496238 -4.496238 -4.496238 1.0 0.0 0.0 0.0
0.05158786 0.024303779 0.5110123 -1.0544302 -2.1972246 -4.3818445 -4.3818445 -4.3818445 1.0 0.0 0.0 0.0
0.1624534 0.18758965 0.16466615 -0.3220621 -2.1972246 -4.351422 -4.351422 -4.351422 1.0 0.0 0.0 0.0
0.054639637 0.19645236 0.9883857 0.74708116 -2.1972246 -4.98008 -4.98008 -4.98008 1.0 0.0 0.0 0.0
0.21035363 0.31362984 0.73511964 -1.8409755 -2.1972246 -4.187304 -4.187304 -4.187304 1.0 0.0 0.0 0.0
0.07600734 0.086080596 0.21703297 -0.28277072 -2.1972246 -4.508104 -4.508104 -4.508104 1.0 0.0 0.0 0.0
0.050154187 0.3123652 0.37984335 -2.757632 -2.1972246 -4.090662 -4.090662 -4.090662 1.0 0.0 0.0 0.0
0.19089629 0.35799617 0.2715751 -1.4650133 -2.1972246 -4.156394 -4.156394 -4.156394 1.0 0.0 0.0 0.0
0.019048851 0.09596888 0.788544 -0.52844113 -2.1972246 -4.5518208 -4.5518208 -4.5518208 1.0 0.0 0.0 0.0
0.06846438 0.14775865 0.77991676 -0.97624266 -2.1972246 -4.2781143 -4.2781143 -4.2781143 1.0 0.0 0.0 0.0
0.22840099 0.4645162 0.9411112 0.3595884 -2.1972246 -4.3756294 -4.3756294 -4.3756294 1.0 0.0 0.0 0.0
0.17523831 0.31831497 0.17503832 -0.62243384 -2.1972246 -4.2111874 -4.2111874 -4.2111874 1.0 0.0 0.0 0.0
0.044620574 0.52728176 0.74350446 -1.0052083 -2.1972246 -4.530054 -4.530054 -4.530054 1.0 0.0 0.0 0.0
0.23427887 0.05781179 0.89382756 0.5212712 -2.1972246 -4.692635 -4.692635 -4.692635 1.0 0.0 0.0 0.0
0.01757074 0.56965363 0.7955026 -0.3450968 -2.1972246 -4.628092 -4.628092 -4.628092 1.0 0.0 0.0 0.0
0.20271268 0.23668425 0.82181257 -0.92333424 -2.1972246 -4.759793 -4.759793 -4.759793 1.0 0.0 0.0 0.0
0.13419099 0.06349171 0.72955483 -0.82892525 -2.1972246 -4.1521325 -4.1521325 -4.1521325 1.0 0.0 0.0 0.0
0.20594288 0.432224 0.9195317 0.0024556739 -2.1972246 -4.17355 -4.17355 -4.17355 1.0 0.0 0.0 0.0
0.0 0.22492442 0.94720376 0.33514583 -2.1972246 -4.5659776 -4.5659776 -4.5659776 1.0 0.0 0.0 0.0
0.01487908 0.5642178 0.95518214 1.0420283 -2.1972246 -4.2518096 -4.2518096 -4.2518096 1.0 0.0 0.0 0.0
0.18265243 0.54506946 0.7821318 -0.6757267 -2.1972246 -3.9971159 -3.9971159 -3.9971159 1.0 0.0 0.0 0.0
0.2367091 0.024078256 0.6319537 -0.77309257 -2.1972246 -4.678396 -4.678396 -4.678396 1.0 0.0 0.0 0.0
0.013887803 0.2860347 0.96714807 0.408378 -2.1972246 -4.624066 -4.624066 -4.624066 1.0 0.0 0.0 0.0
0.161412 0.58625555 0.9244487 0.6934616 -2.1972246 -4.0333867 -4.0333867 -4.0333867 1.0 0.0 0.0 0.0
0.011253652 0.0 0.5313411 -0.734828 -2.1972246 -3.9747598 -3.9747598 -3.9747598 1.0 0.0 0.0 0.0
0.18433669 0.18589023 0.6868028 -1.9349808 -2.1972246 -4.432208 -4.432208 -4.432208 1.0 0.0 0.0 0.0
0.15197867 0.19484931 0.6988502 -1.9673644 -2.1972246 -4.4965124 -4.4965124 -4.4965124 1.0 0.0 0.0 0.0
0.09588735 0.5182801 0.9880466 1.0158935 -2.1972246 -4.435836 -4.435836 -4.435836 1.0 0.0 0.0 0.0
0.15485276 0.12558599 0.6275098 -1.8974558 -2.1972246 -4.5559897 -4.5559897 -4.5559897 1.0 0.0 0.0 0.0
0.021129454 0.056700435 0.19232398 0.17495611 -2.1972246 -4.3411436 -4.3411436 -4.3411436 1.0 0.0 0.0 0.0
0.19532266 0.2075658 0.66760623 -2.2282684 -2.1972246 -4.4074593 -4.4074593 -4.4074593 1.0 0.0 0.0 0.0
0.22296835 0.2758573 0.93666446 0.08227954 -2.1972246 -4.725598 -4.725598 -4.725598 1.0 0.0 0.0 0.0
0.23427081 0.42633986 0.80886716 -0.8902149 -2.1972246 -4.383939 -4.383939 -4.383939 1.0 0.0 0.0 0.0
0.036135383 0.48385012 0.82944936 -0.5841865 -2.1972246 -4.3150434 -4.3150434 -4.3150434 1.0 0.0 0.0 0.0
0.0819069 0.34857252 0.7890834 -1.4037627 -2.1972246 -3.787375 -3.787375 -3.787375 1.0 0.0 0.0 0.0
0.13767454 0.18365878 0.8132525 -0.9141725 -2.1972246 -4.4294333 -4.4294333 -4.4294333 1.0 0.0 0.0 0.0
0.24603176 0.11766206 0.8830071 0.11962955 -2.1972246 -4.484112 -4.484112 -4.484112 1.0 0.0 0.0 0.0
0.010185834 0.3379215 0.6359922 -2.785797 -2.1972246 -4.510682 -4.510682 -4.510682 1.0 0.0 0.0 0.0
0.13698255 0.20168768 0.11183974 0.10278372 -2.1972246 -4.370502 -4.370502 -4.370502 1.0 0.0 0.0 0.0
0.19150165 0.11595565 0.6555642 -1.5709003 -2.1972246 -4.938896 -4.938896 -4.938896 1.0 0.0 0.0 0.0
0.05584707 0.60967773 0.8403602 0.14481026 -2.1972246 -4.766487 -4.766487 -4.766487 1.0 0.0 0.0 0.0
0.0 0.5954873 0.98567337 1.9667974 -2.1972246 -4.4670644 -4.4670644 -4.4670644 1.0 0.0 0.0 0.0
0.10904127 0.18576589 0.2649845 -1.1807287 -2.1972246 -4.341387 -4.341387 -4.341387 1.0 0.0 0.0 0.0
0.06291693 0.20685677 0.94444054 0.214517 -2.1972246 -4.1522927 -4.1522927 -4.1522927 1.0 0.0 0.0 0.0
0.051048193 0.243172 0.20424773 -0.7678527 -2.1972246 -4.3202133 -4.3202133 -4.3202133 1.0 0.0 0.0 0.0
