ply
format ascii 1.0
element vertex 358
property float x
property float y
property float z
property float value
property float weight
property float scale_0
property float scale_1
property float scale_2
property float rot_0
property float rot_1
property float rot_2
property float rot_3
end_header
0.15605818 0.045123298 0.8796301 0.34404135 1.0943849 -3.0195892 -3.898012 -4.0939636 0.7159054 -0.085901886 -0.13553244 0.22546384
0.07758626 0.2350007 0.8902452 -0.39080995 -1.2200693 -3.365441 -3.5691926 -3.6862311 0.7822139 0.00089552335 -0.14265226 -0.12923104
0.0579565 0.27590263 0.97637373 0.4428585 -0.0025252148 -3.6755607 -3.7430503 -4.212317 0.95478076 0.0003873701 -0.030537326 0.03864268
0.18057872 0.17130826 0.1707976 -0.3570394 2.7046182 -3.1859837 -3.7582023 -3.8411915 0.72861177 4.219011e-05 0.19537574 0.19115503
0.17365097 0.6063314 0.92045796 0.6216407 0.21512944 -3.1416423 -3.5548873 -3.5402393 0.83206594 -0.026856868 -0.115898915 -0.12909232
0.15415134 0.031956516 0.85470784 0.10504713 -0.94218713 -3.4613864 -3.8864315 -3.8428078 0.7895337 -0.06573844 -0.033381995 -0.11936725
0.17439005 0.0211484 0.83028656 0.38018703 -0.8597672 -3.803035 -4.3398542 -4.0560546 0.9356901 0.023399724 0.083978035 -0.045210376
0.0704607 0.07422982 0.97967637 1.8896844 -1.8328009 -3.6220977 -3.6428654 -3.9236581 0.9477283 0.027544348 -0.027310658 0.017729584
0.07889352 0.024602469 0.74558616 -0.12482524 -1.5400658 -3.673263 -3.8586164 -3.8029227 0.9216325 0.012743032 -0.032897525 -0.055752568
0.22456414 0.2757308 0.82611156 -0.6507246 -3.1023767 -3.6378038 -3.6309652 -3.3292007 0.91489124 0.009381899 0.06402892 0.024441687
0.22398637 0.19593066 0.7698225 -1.2891636 -2.3524904 -4.0458646 -3.7812495 -3.6413429 0.88917047 0.008229963 -0.09218076 0.058666617
0.029383255 0.31912753 0.82890093 -1.1546249 -0.03388801 -3.8492754 -3.4319823 -3.6555436 0.84479827 -0.12495207 0.073087834 -0.10295205
0.14898579 0.14874397 0.14863463 0.17307168 -2.0903294 -3.4972844 -3.8295097 -3.6390598 0.8576271 -0.06555372 0.050816096 -0.09137681
0.13383618 0.1270634 0.23111972 -0.5388761 -3.7194703 -3.478022 -3.4731688 -3.7633545 0.95518225 0.01156468 0.03900705 0.011512431
0.21525103 0.13045657 0.66545206 -1.8235972 -2.9455895 -4.061415 -4.05617 -4.2045584 0.9365321 -0.051189277 -0.0044465894 0.007758562
0.1068987 0.6328364 0.82032645 0.3376237 -3.820374 -3.652681 -4.202496 -3.4870334 0.9644167 -0.031454206 0.0067826277 0.005466698
0.23808059 0.63863647 0.7387358 -0.14275956 -4.5919137 -4.077719 -4.2848 -4.1236176 0.94059354 0.040991716 0.019334933 -0.03152486
0.17402366 0.22408883 0.769156 -1.6651078 2.1414452 -3.6832497 -3.5476904 -3.7389858 0.81941885 0.10704568 -0.018370776 -0.12552388
0.01809224 0.34411687 0.7498186 -1.7754725 -2.9331288 -3.9706604 -3.5627358 -3.5049088 0.97930914 -0.020799177 -0.016797433 0.01235678
0.16661985 0.30791238 0.38270593 -2.701196 -0.67314917 -3.464773 -3.1488516 -3.5145645 0.82611936 -0.10674747 0.009148663 0.10724001
0.22868882 0.43334493 0.8445397 -0.47625998 -3.6543088 -3.7844477 -3.5436833 -4.0304284 0.86294484 0.106117174 -0.031902082 -0.026467292
0.16389306 0.18600908 0.88982415 -0.37125346 4.228953 -3.5111325 -3.4527338 -3.5018382 0.8106357 -0.08917492 0.06530622 0.14427401
0.1320373 0.50497895 0.9872395 1.0445591 -3.5451806 -4.1069036 -3.8088133 -4.158451 0.94541067 -0.033629894 -0.012860491 0.052753225
0.038496707 0.056852333 0.9937316 1.9922626 -3.9595444 -3.2382734 -3.2021828 -3.9212458 0.97305024 0.01144673 -0.01609098 0.032806654
0.20929594 0.3740363 0.8118838 -1.2263091 -0.36294174 -3.7064567 -3.491343 -3.3379092 0.77027947 0.17722374 0.13514477 -0.147981
0.22518453 0.10954006 0.7155326 -1.1654006 -1.5841814 -4.4928617 -3.933467 -4.188595 0.90985346 -0.08160107 0.018672667 0.01555908
0.17744386 0.021223731 0.93543726 1.1963325 -1.2340554 -4.2508874 -4.6066546 -4.3395295 0.85948145 0.019223472 -0.08464686 0.09915124
0.16054213 0.046215147 0.8683612 0.12656029 0.22994214 -3.5375175 -3.6382964 -3.724326 0.7827295 0.09661284 0.10240478 -0.09108002
0.10789904 0.583617 0.71313745 -0.9847044 -2.2479289 -4.221808 -3.818926 -4.2905498 0.884224 0.09858463 0.003061177 0.06634835
0.21688478 0.12619805 0.6886389 -1.2688332 -0.75383383 -3.86149 -3.856678 -3.661025 0.9272819 0.0647667 0.041259494 0.012870984
0.047481626 0.566923 0.83686405 -0.23494422 2.669074 -3.5372844 -3.691669 -3.7292542 0.80998933 -0.047181316 0.10554712 -0.12345699
0.21114057 0.16891678 0.76435256 -1.1925424 4.3088274 -3.9652681 -3.8369017 -3.7870164 0.80197394 0.006497138 0.13217086 -0.002633531
0.06923894 0.5549668 0.9949449 1.4453368 -4.110454 -3.5480087 -3.5877922 -4.246591 0.93010056 0.023395924 0.040760104 0.033087097
0.12477682 0.38261384 0.91790766 -0.022784956 -0.3058085 -3.7968948 -3.5611544 -3.8090148 0.8635298 0.086249605 0.01993962 -0.10054156
0.013595087 0.6335713 0.5714165 -0.7777779 -3.870683 -3.7265275 -3.9939024 -3.5874941 0.9132225 0.0068602976 0.020539068 0.06477499
0.06934384 0.41150647 0.8354252 -0.98451537 -2.0257475 -3.597505 -3.9477746 -3.9765658 0.7813883 0.030286003 -0.13688438 -0.17556386
0.06415464 0.115760006 0.22662897 -0.45430827 -2.173254 -3.6453834 -3.5983946 -3.7303038 0.90127015 0.040729545 -0.018340038 0.07458537
0.023052562 0.263924 0.39451063 -2.5810492 -4.303388 -3.7014406 -3.6090877 -3.8203793 0.89885753 -0.080122575 -0.021635601 0.05804658
0.1521091 0.028602816 0.68814635 -0.85548764 0.017993696 -3.4291244 -4.009157 -3.7638757 0.8486699 -0.00035256078 0.109341025 0.10049543
0.012086886 0.17437388 0.6843057 -1.5544378 -4.194519 -3.8762164 -3.8753939 -3.5981283 0.9656811 0.033668306 -0.019639717 -0.00018539617
0.025741767 0.1858414 0.7408729 -1.2242137 -0.70472974 -4.0741906 -3.7514505 -4.03416 0.9026575 -0.09625336 -0.013973253 -0.075511776
0.1532165 0.23416209 0.73571724 -1.6233102 1.6617248 -3.6750684 -3.631581 -3.5944827 0.7974524 0.0363628 -0.15449262 0.05889039
0.029867785 0.12858751 0.98374087 1.2944994 -3.518471 -3.4615474 -3.7504745 -3.8151748 0.90786195 0.0047457414 0.02581167 0.07860796
0.013862881 0.48392755 0.75365406 -1.0227561 -3.4718556 -3.6630116 -3.1654177 -3.5265436 0.9251634 0.072861485 0.0119970385 -0.013635989
0.115891755 0.012462931 0.755354 -0.114775084 -3.6989126 -3.7557254 -4.203717 -3.8315568 0.92040473 0.013060007 -0.0065324064 0.06638682
0.15073618 0.17764497 0.7801725 -0.9880051 2.085594 -3.6052263 -3.5942833 -3.6703315 0.82552236 -0.059336297 0.01655274 0.10730613
0.02274509 0.10899354 0.85787463 -0.038282946 -1.8446301 -3.899119 -3.6346593 -3.745709 0.90535146 -0.049177133 0.0058069527 0.06325784
0.15754734 0.39375234 0.80610263 -1.2062293 0.43814522 -3.5019298 -3.5787385 -3.406814 0.7810973 -0.12260595 -0.11093892 -0.10899394
0.111704096 0.3790368 0.4524141 -5.6787624 -3.5620399 -4.155258 -4.134339 -4.07056 0.9708629 0.016345823 0.009078465 -0.016948229
0.039320484 0.37812823 0.8174032 -0.9391966 -1.5374547 -4.1726656 -3.84481 -3.9698632 0.75507504 0.17485356 -0.022785619 0.061838254
0.017392933 0.092331424 0.93007445 0.7267419 -3.14413 -4.1597557 -4.2169056 -3.7419493 0.87954044 0.09889458 -0.0750667 -0.001961082
0.08009949 0.1924736 0.32495013 -1.7199833 -3.2102337 -4.1189227 -3.922857 -3.922176 0.92280877 0.059368767 0.0066227186 -0.018407643
0.018241547 0.25463054 0.96390194 0.488033 -3.2974117 -4.0526414 -3.78737 -4.1827135 0.84914804 -0.13049175 -0.011517377 0.09389141
0.090486966 0.030733818 0.5699126 -1.1873294 0.4680261 -3.8858857 -4.003816 -3.6695411 0.85523605 0.05499188 -0.121065006 -0.006510921
0.1690679 0.19255066 0.6870256 -2.0317867 -1.6604156 -3.778342 -3.4306097 -4.0654993 0.87257725 -0.08935477 -0.048539937 0.009179035
0.014878857 0.30729732 0.9751714 0.5539717 -3.4454074 -3.8184354 -3.4311793 -3.7294583 0.9111316 0.04317234 0.007539124 -0.05988349
0.16287097 0.05539503 0.6358022 -1.1260375 0.21668443 -3.561065 -3.7534308 -3.69271 0.8216227 -0.075297244 -0.15245894 -0.11461257
0.21410424 0.2356082 0.9257239 -0.044618815 -0.1265894 -3.8009036 -3.5949142 -3.550147 0.8294732 0.06954581 -0.06409819 0.13084446
0.025037168 0.19551846 0.2736337 -1.1156152 -3.8771076 -3.9710317 -3.599466 -3.3476288 0.98031694 -0.021910707 0.011800985 0.012568281
0.04664803 0.014359143 0.7452348 -0.18270631 -2.87793 -3.855535 -4.246266 -3.7734468 0.89401275 0.0033382918 0.09037146 -0.03502828
0.11019613 0.49627647 0.89654154 -0.16731606 2.7844195 -3.4467542 -3.44572 -3.3863828 0.7750524 -0.101552285 0.15987466 -0.06283656
0.22137308 0.57017314 0.8902385 0.26928854 -1.6939363 -4.409058 -4.110603 -3.8625646 0.79837805 0.062947854 0.15846677 -0.08548244
0.123706155 0.21529505 0.26209047 -1.5028267 4.592813 -3.6445148 -3.6906366 -3.7826583 0.79871315 -0.13975288 -0.004652749 0.12842391
0.035320245 0.5456266 0.74631304 -0.8726853 1.6783088 -3.5687952 -3.4362485 -3.2596183 0.7889633 -0.18341544 0.079984576 -0.081789486
0.13192363 0.22990412 0.86701393 -0.63662076 1.1521899 -3.6584663 -3.6422575 -3.4968214 0.8003546 0.04550295 0.116551764 -0.007023351
0.22736813 0.34693193 0.9448284 0.18596764 -2.7678375 -3.8997033 -3.6621487 -3.6292508 0.9725311 0.0014980866 0.017153252 -0.005875078
0.14487599 0.12624118 0.7082453 -1.3929713 -0.7637723 -3.3859596 -3.6940286 -3.7109387 0.8006414 -0.003880767 0.13367184 -0.099294074
0.049292035 0.62700117 0.7088395 -0.35393402 -2.2465699 -3.499968 -4.1780105 -3.715024 0.9559332 -0.005439326 0.018041976 0.03801016
0.16504878 0.5901503 0.9745693 1.8472869 -0.40654343 -3.4829092 -3.7075758 -3.8217037 0.95837885 0.005003888 -0.036214836 0.028747337
0.03750074 0.026769996 0.84931153 0.022436643 -2.2218251 -3.4528415 -3.9540756 -3.6671689 0.818149 0.026129164 0.015195753 -0.13226147
0.07914203 0.31512293 0.41631296 -3.8599374 -3.7873669 -3.5535126 -3.5645354 -3.8853347 0.95154554 -0.051002495 0.022266585 -0.003924366
0.12410982 0.27547365 0.36438778 -2.9854674 -1.5321747 -3.9159493 -3.5993817 -3.7339294 0.99006236 -0.005688388 -0.008999725 -0.008462829
0.13237894 0.40588862 0.28745526 -1.577782 -4.025445 -3.7381756 -3.7063947 -3.4411304 0.8828009 0.009378813 0.096768774 -0.025023594
0.031530783 0.10296657 0.75555366 -0.89246297 -1.6215743 -3.9287279 -3.3176267 -3.8369856 0.7719522 0.14781024 -0.130965 -0.15693088
0.16483839 0.32011852 0.9197321 -0.3147184 1.2730676 -3.5745175 -3.6370296 -3.692556 0.8174452 -0.0138250645 -0.11340551 0.07049051
0.23070256 0.21800973 0.92994016 0.20922102 -3.5810683 -3.8160284 -3.5333035 -3.5776107 0.9826237 -0.00081396743 0.020090744 0.013265266
0.18736903 0.29414186 0.15669167 -0.25885174 -2.6598217 -3.6729374 -3.6219108 -3.8089788 0.9382943 -0.039360415 -0.031984694 -0.03347992
0.21234158 0.38004765 0.8840523 -0.35376906 -0.8403037 -4.186679 -4.0433526 -3.8738294 0.8435566 0.054297928 0.089375325 -0.14488421
0.17175823 0.40280262 0.31111836 -1.6495446 -3.2119527 -3.24789 -3.540275 -3.4799616 0.92231345 -0.0022586347 -0.0038839174 0.062266175
0.062395636 0.01571396 0.7725052 0.001614915 -3.38146 -3.435044 -3.773419 -3.5857685 0.93276834 -0.04920196 0.018675394 -0.0086078765
0.213174 0.1329567 0.80420774 -0.6770595 0.47507834 -4.0151205 -3.791451 -3.7788174 0.8239775 -0.09152194 0.12711486 -0.09202109
0.011202546 0.5619561 0.8454374 -0.08055716 -3.7278197 -4.708415 -4.4514475 -4.118825 0.9534604 -0.050878275 0.028934542 0.031723507
0.052679878 0.52375287 0.97898865 1.3421874 -2.0539203 -3.969424 -3.922704 -4.0912504 0.8598526 0.041337024 0.124569826 -0.0044971877
0.17517297 0.22611034 0.3292184 -2.0694582 -0.4801408 -4.136251 -3.9706132 -3.9499068 0.8836586 -0.003796403 -0.07389999 0.008250469
0.15739816 0.6179144 0.7499274 -0.221067 -1.4092723 -3.645276 -3.7885578 -3.633645 0.8809202 -0.050654925 -0.042360608 -0.064145915
0.20740812 0.008108243 0.95722157 1.9208763 -4.0802593 -3.2284164 -4.0613093 -3.8257134 0.9815257 0.018414615 -0.008451632 0.0005206616
0.17751947 0.61482525 0.86470336 0.59043753 -1.707753 -3.6908367 -3.775591 -3.928748 0.87770647 0.055906486 -0.0777068 0.057484407
0.22834796 0.10906221 0.88799363 0.19713116 -3.4893034 -3.8630257 -3.8221588 -3.698375 0.9194166 -0.030137768 0.051413815 0.014178397
0.13096562 0.29273114 0.23188254 -1.2673028 1.4108981 -3.5881243 -3.6375043 -3.400062 0.820822 -0.120041594 0.1418901 -0.012500968
0.014341464 0.1207846 0.58733064 -1.6007358 -3.8517442 -3.9376228 -3.7770019 -3.7615676 0.97606677 -0.0136499945 -0.0144307325 -0.0053576683
0.14671424 0.37584555 0.73008734 -1.7746993 -1.5188931 -3.4525504 -3.5026064 -3.7390597 0.9691629 0.00081228465 -0.019895324 0.013424877
0.19226456 0.2472821 0.09451768 0.23284328 -1.4673544 -3.6918201 -3.6414285 -3.6679685 0.9568081 -0.007970275 0.0073128897 0.03540782
0.18314603 0.40280002 0.76669914 -1.304103 -3.60853 -3.5175147 -3.6912522 -3.5749457 0.93974775 0.059590105 -0.0009342948 -0.009731591
0.13856515 0.6045627 0.9657049 1.0918722 0.18917471 -3.3653443 -3.6266615 -3.8452687 0.7889766 -0.06105312 0.17331296 0.059176464
0.03409432 0.17279086 0.18983464 -0.38295192 -2.948456 -3.7948453 -3.526776 -3.5659122 0.89202565 -0.049447794 0.07779374 -0.057725012
0.21189053 0.054431327 0.73506725 -0.914839 -0.515127 -3.5657518 -3.4186096 -3.4466877 0.835404 -0.11085186 0.056609116 -0.11164708
0.038640376 0.2563587 0.64034575 -3.295085 -2.7163312 -3.6764278 -3.6233518 -3.8903708 0.97232175 0.0013319644 0.012427511 -0.014889936
0.17638639 0.010700786 0.8829673 0.79743856 -3.7058148 -3.5843256 -4.221516 -3.8127952 0.964477 0.030464059 -0.025431786 -0.00725278
0.15354861 0.49147913 0.8250558 -0.7149108 2.3990946 -3.277272 -3.2704382 -3.0973275 0.74508727 -0.15257065 -0.15875801 -0.054445673
0.14013305 0.41319925 0.9726053 0.3652545 -1.5709646 -3.2100835 -3.7309747 -3.9103029 0.8362138 0.007348594 0.14060213 0.042794194
0.1689917 0.2728244 0.3877578 -3.028639 -3.0218072 -3.348055 -3.8002021 -3.9180188 0.94819033 -0.07925959 -0.012428794 0.0022648512
0.10238046 0.12724668 0.15174133 0.28466722 -2.504654 -3.8111072 -4.0005965 -3.6266096 0.89276636 -0.080991045 -0.084583074 0.00374409
0.17776953 0.62796384 0.8913701 0.80477005 -2.8235352 -4.060255 -4.376454 -4.0200634 0.9353491 -0.036455303 -0.09012346 0.04559445
0.11391015 0.13497874 0.21491124 -0.62620735 -0.75786084 -3.6342933 -3.954272 -3.7640285 0.84860164 0.12131541 0.023116807 0.053263273
0.22939141 0.5934965 0.92250746 0.9497892 -3.109305 -3.7741416 -3.5192413 -3.3117645 0.8792106 0.024108035 0.090773664 -0.0350451
0.032157943 0.44869274 0.71897304 -1.5444206 1.9643508 -3.8543453 -3.6653843 -3.6845329 0.8767327 -0.06662042 0.04798803 0.068506315
0.020653507 0.15013745 0.7621045 -0.682818 -3.7695954 -4.1020517 -3.8243084 -3.9375248 0.942683 0.06163218 -0.037773747 -0.019792667
0.22997993 0.40156284 0.8111779 -0.9371136 -3.0885348 -4.007135 -3.7197547 -3.9090712 0.928861 -0.018602418 0.055101644 -0.0348005
0.18953776 0.6087404 0.9363305 1.0107802 3.6104178 -3.1555219 -3.7571385 -3.6573641 0.7575149 0.06827441 -0.17097735 0.15109672
0.21036696 0.419267 0.9190688 -0.062607065 1.6547135 -3.5364137 -3.4440045 -3.6236346 0.8035789 -0.142472 0.083942555 -0.041059658
0.20716886 0.39335093 0.994642 0.79435706 -4.022655 -2.8975563 -3.1346352 -3.7911723 0.95440644 0.006078642 -0.006317876 0.037180137
0.1838279 0.019531887 0.73599213 -0.2918386 -2.7158525 -3.7330656 -3.8754501 -3.6416557 0.91431504 0.0184095 0.10248216 -0.013452819
0.019041698 0.04885466 0.79448754 -0.16674466 -2.1906726 -3.654361 -3.188865 -3.4004827 0.9580234 0.06963722 -0.02030398 0.00297208
0.23657185 0.40218514 0.9821823 0.7198189 -4.331246 -3.51961 -3.1121812 -3.4587867 0.93235403 0.028298073 -0.028565591 0.04862144
0.0016853956 0.6415341 0.7263022 -0.2738082 -4.622616 -3.612484 -3.6503007 -3.0080423 0.8973936 0.07154634 -0.03767572 -0.008874048
0.03004613 0.20117733 0.1928429 -0.48144063 -3.4849572 -3.5959342 -3.5448732 -3.3026404 0.9010621 0.06250167 0.0641447 0.0286746
0.11957997 0.3315007 0.41861174 -4.9668627 -3.0855148 -4.095873 -4.0448236 -4.111912 0.94023407 -0.034555417 0.028614638 0.029775947
0.034194574 0.6253209 0.84151846 0.4863159 -2.3661041 -3.825049 -4.295295 -4.046734 0.90701234 0.07198537 0.058018077 -0.061836317
0.2101205 0.30547154 0.3415059 -2.2522566 -0.10661309 -3.9645257 -3.7259364 -3.6050336 0.86822236 -0.063245185 0.12772804 0.0044801766
0.07626367 0.35465452 0.98537356 0.9580638 -3.064454 -3.3613749 -3.41893 -3.9282491 0.9308826 -0.052854735 0.0057554194 0.0014482548
0.052143946 0.19583887 0.31576663 -1.567588 0.5678253 -3.6662285 -3.503283 -3.7254004 0.8842456 -0.020327494 0.026056027 -0.09321881
0.009271251 0.057047404 0.9931647 2.1473055 -4.383746 -3.9341059 -3.8100688 -4.0125465 0.9208909 0.035502087 -0.052769493 0.028121404
0.17305508 0.088520505 0.9896077 1.6231227 -4.077795 -4.0859323 -4.340678 -4.489272 0.86583036 0.011263998 -0.08975851 0.027848545
0.05015268 0.33412373 0.96755195 0.298624 -2.1185877 -3.4362726 -3.8809364 -3.912543 0.7715324 0.05073255 0.1868732 -0.15109599
0.05601624 0.21179712 0.6495659 -2.3632727 -0.20911455 -3.4731276 -3.3104072 -3.699276 0.8398641 -0.14789289 0.0731299 -0.00507031
0.22488207 0.23439862 0.9844628 0.9762789 -3.5981493 -4.1925917 -4.14703 -4.1967206 0.9291401 -0.0061690216 0.005230012 -0.07983819
0.023194788 0.193321 0.8916375 -0.079639554 -1.9500916 -3.8815315 -3.6102958 -3.7141826 0.9206853 0.0018324354 -0.075135484 0.0118736625
0.16615634 0.15671277 0.8190127 -0.82173127 2.6012845 -3.5701182 -3.652091 -3.6668987 0.848274 0.010680184 0.11315302 -0.035090595
0.13943599 0.26942343 0.15211202 -0.37174225 -4.488454 -3.6021273 -3.7260778 -3.5913308 0.9845825 0.00895107 -0.012103646 0.012973324
0.070996195 0.19124909 0.86896425 -0.45469582 1.0217128 -3.4847145 -3.7146811 -3.8801167 0.7768181 0.07820748 -0.07513454 -0.15959102
0.116786756 0.28217986 0.8550733 -0.81434846 0.7747402 -3.0496097 -3.545186 -3.5973883 0.7855267 0.063029684 0.1297462 0.17198025
0.018627584 0.1374534 0.5586585 -2.5138035 -3.7008295 -4.207048 -3.8377879 -4.0279417 0.92994547 -0.016718572 -0.060588494 0.023764985
0.014785859 0.09033555 0.8735661 0.1767947 -3.3238556 -4.4501815 -4.038283 -4.282771 0.95503354 -0.036016747 0.018755004 0.0069273612
0.10456465 0.020964785 0.5354412 -1.2133507 -3.7513165 -3.8341024 -3.9525046 -3.5820813 0.99002755 -0.0063507506 -0.010204419 0.021250522
0.1536547 0.43040687 0.97865593 0.59351796 -1.4543052 -3.6776514 -3.7750711 -4.184993 0.91458255 0.02107909 -0.04834472 -0.11797901
0.050010443 0.6395341 0.96606386 1.9832755 -4.6303964 -4.0203304 -4.3993597 -3.9233046 0.98383933 -0.0026257427 0.0065986845 -0.017326089
0.21344931 0.5642362 0.7861163 -0.4781874 4.2523127 -4.048214 -4.004414 -3.8374887 0.8077803 -0.1295621 -0.1113464 -0.0111054955
0.1565111 0.6414694 0.8450747 0.41191092 -4.7390847 -3.398573 -4.0014553 -3.6595123 0.9553543 -0.021033788 -0.018384965 0.014991145
0.0036102072 0.4868694 0.64102995 -1.7848873 -4.300426 -4.101595 -3.5325246 -3.8872917 0.87815416 0.10225792 -0.06441687 -0.03576512
0.19939409 0.07865195 0.9907754 1.6411681 -4.4268394 -3.5397103 -3.3827958 -3.6154435 0.9571246 -0.023640273 -0.023699673 0.010579242
0.05259359 0.022017935 0.7364906 -0.5290991 -2.6118035 -3.6870382 -4.2927146 -3.9560068 0.8535573 0.052831057 -0.020738514 0.11258986
0.19246937 0.21313968 0.07742463 0.7724472 -1.6210091 -3.5884762 -3.7371516 -3.939162 0.88226444 -0.021246327 -0.07293695 -0.07340515
0.17674085 0.39532503 0.37311095 -2.5031922 -3.0350165 -3.8351405 -4.119679 -3.4679499 0.9407927 0.040849887 -0.013244 0.0078084907
0.2125448 0.041357074 0.6526633 -0.87179726 3.598463 -3.8333857 -3.6409907 -3.7071898 0.9805695 0.025188573 0.008596909 0.004122602
0.024154257 0.60031897 0.80632496 -0.0106394645 -1.5178642 -3.5732987 -3.3869963 -3.310373 0.9836579 -0.016454782 -0.00026789232 0.011657845
0.23346163 0.6288732 0.96126974 1.9561309 -3.7629542 -3.8389559 -3.7403452 -3.6679716 0.95524275 -0.0060602156 -0.013119431 0.030771092
0.09476555 0.6029244 0.69479203 -0.89200455 -3.678227 -3.6117728 -3.5468822 -3.8072975 0.90213084 0.040904813 0.09423933 0.018576179
0.02595011 0.53587246 0.9891351 1.4798026 -4.37812 -3.4952736 -3.83639 -3.7758029 0.9833222 -0.012032658 -0.014940324 0.0052459626
0.07745736 0.36002222 0.83576715 -0.7085974 2.31027 -3.4594533 -3.4215071 -3.4334636 0.8241907 -0.094314024 0.09441176 -0.11293002
0.10402773 0.4341431 0.7147072 -2.3774235 3.5639277 -3.75778 -3.7782848 -3.7551646 0.8474368 0.074161485 0.1021955 -0.08290547
0.16101272 0.18545388 0.22055152 -0.9841466 -0.71251166 -3.6533453 -3.7828887 -3.610052 0.82775 0.029143445 -0.07373143 0.110475436
0.06490887 0.024249902 0.8088634 0.104499854 -1.4644631 -3.9120033 -4.0008354 -3.6332815 0.8483019 0.111124724 0.009422806 -0.036886558
0.2183485 0.3760286 0.74939597 -1.4413047 -1.2977161 -3.9007635 -3.7556305 -4.004159 0.94431263 0.0069533065 -0.05269077 0.023113884
0.121166885 0.04428483 0.785417 -0.40861157 2.0747697 -3.297584 -3.782247 -3.7575445 0.753947 0.013355043 0.17396192 -0.16117457
0.016681166 0.0072548795 0.474386 -0.7441695 -3.850964 -3.2018964 -3.627324 -3.1557262 0.82393557 0.12647094 0.039916936 -0.05310029
0.17346607 0.022621388 0.6905769 -0.67739105 -0.45472562 -3.7253847 -4.2559805 -3.5462782 0.8705377 -0.10527667 0.06556321 0.03928008
0.22614291 0.390814 0.9154936 0.08067551 -2.2909508 -3.8758643 -3.5774648 -3.486739 0.87934875 0.014256392 0.09050525 -0.044343878
0.00060986786 0.51535213 0.99834377 1.3524377 -4.603131 -3.956422 -3.3418417 -4.0777664 0.89828926 -0.028927572 -0.059519026 0.047305096
0.013738843 0.39052922 0.7828223 -1.1690656 -3.465482 -3.8014388 -3.371369 -3.5665815 0.97831434 -0.029965159 -0.0022757456 0.012875436
0.13590571 0.024445398 0.9266003 0.87198937 -1.3760794 -3.720529 -3.9429288 -3.6536183 0.95666707 0.021644196 -0.05614934 -0.029052142
0.1168425 0.34232795 0.43494406 -5.4888463 -3.654798 -3.871283 -4.2312036 -4.2865233 0.9652226 -0.038488682 -0.0025098268 0.013418013
0.014753036 0.17310604 0.6424221 -1.8404543 -3.8801317 -4.2410316 -4.0980415 -4.043559 0.9919427 0.0031692185 0.010542221 -0.0058711516
0.22938342 0.26948404 0.9788401 0.58868414 -3.5262628 -4.098171 -4.0123854 -4.288179 0.9567127 0.028411046 0.020434523 -0.0072470587
0.13162073 0.2415042 0.9813833 0.45704842 -1.942207 -4.103666 -3.854664 -4.4778433 0.9403587 -0.031668115 0.022114733 -0.044969298
0.034644138 0.15114425 0.80967754 -0.61477256 1.7275102 -3.8399816 -3.662514 -4.000982 0.79393953 0.13087058 0.113775045 -0.07789082
0.16533689 0.57555544 0.7364058 -0.9566492 -1.9023464 -3.5901558 -3.7274673 -4.08719 0.9421207 0.0027877772 0.054590266 -0.02775749
0.0112249805 0.10485113 0.53863174 -1.6405019 -3.430372 -4.1649914 -3.646889 -3.4682617 0.9343077 -0.040810995 -0.018336378 -0.059928462
0.13497621 0.47976992 0.65991044 -2.1130183 -3.2955284 -3.6618662 -3.509156 -3.4329586 0.9316933 -0.04969269 -0.02179242 -0.029736415
0.03552633 0.17637244 0.6209412 -1.9789603 1.9520731 -3.6075647 -3.5852168 -3.702262 0.82375336 -0.021548878 0.14842989 -0.08796522
0.21195874 0.20520286 0.2864003 -1.1707605 -0.574204 -4.229278 -4.098711 -4.0219564 0.88085043 0.005449678 0.028894251 0.07403987
0.22439097 0.08761968 0.8755642 0.18682998 -2.6305528 -3.5314493 -3.420547 -3.288285 0.90224504 0.03816881 0.067318246 0.014585312
0.07512709 0.37204668 0.34043193 -2.0611246 -1.6130112 -4.0728846 -4.17447 -3.7661936 0.9687092 -0.017786464 0.010978242 -0.016854405
0.068567626 0.08176145 0.9701854 1.1181104 0.94536483 -3.3107026 -3.393603 -3.6562352 0.84868133 -0.042771064 -0.1310588 0.056220442
0.17609407 0.3856053 0.24178295 -1.319102 -0.9040032 -3.6213853 -3.8368049 -3.7295446 0.8845934 0.08916174 0.014609511 -0.06435045
0.16829138 0.2490172 0.112177104 0.026687562 -2.1146548 -3.5877094 -3.5853164 -3.7310631 0.8996841 -0.08150095 0.037626274 -0.0058083255
0.16189432 0.24996065 0.928841 -0.14520536 1.7405097 -3.6087701 -3.286831 -3.7946343 0.75925255 0.024517678 -0.043672726 0.1732492
0.21179752 0.6250942 0.74711955 -0.088524334 -2.3227532 -3.7835386 -4.2501554 -4.1143174 0.9359153 -0.063858405 -0.023654394 0.025861723
0.048611544 0.45646182 0.66902274 -2.2014704 -4.107179 -3.5951004 -3.6919827 -3.9479334 0.9137163 -0.037738275 0.051456343 -0.060551144
0.24341613 0.0018419302 0.8736474 0.78727376 -4.6618824 -3.695013 -4.099653 -3.6514878 0.89230853 -0.055880077 -0.029180493 0.055316836
0.09462247 0.46810916 0.95499104 0.38871813 0.110313445 -3.6066394 -3.5159945 -3.9402905 0.75103 -0.17907631 0.12567738 0.06444677
0.1161117 0.3912277 0.2755704 -1.4308167 -3.7077727 -3.5655935 -3.6993127 -3.4179573 0.96742654 0.020553114 -0.01739725 -0.014398131
0.00077118125 0.417995 0.6349478 -2.3465633 -4.6418715 -3.8798 -3.293691 -3.7187786 0.87827754 -0.05640852 -0.048103724 0.071282744
0.09292318 0.27031872 0.76077163 -1.926235 2.3425446 -3.5902648 -3.6482277 -3.469083 0.8197255 0.08771888 0.1258803 0.025392031
0.11799844 0.21645403 0.06774567 0.85480285 -3.8848722 -3.6287482 -3.541659 -3.7513247 0.90121484 0.053139016 0.03441421 0.034448277
0.062040772 0.22062494 0.99026555 1.1486847 -4.32348 -3.6065376 -3.9759188 -4.3730984 0.88197964 0.016484128 -0.09087245 0.0008376471
0.14699319 0.45028567 0.9541985 0.3188915 2.2883866 -3.5660741 -3.171962 -3.8659408 0.7559152 -0.20437509 -0.07998816 0.074644156
0.15808912 0.107382365 0.8408139 -0.3535869 -0.9451951 -2.8874495 -3.6264515 -3.5271475 0.7366803 0.025963109 -0.18162802 0.14152588
0.009035435 0.5929149 0.9591794 1.6039621 -4.079572 -3.7995045 -3.4473965 -3.0958645 0.9095924 -0.019135624 -0.058805093 0.04645903
0.22459687 0.29891384 0.961779 0.38118678 -2.8530965 -4.139414 -4.135473 -4.145233 0.9701774 -0.027102038 -0.00559129 0.0061315782
0.0709576 0.28880367 0.9059543 -0.4844816 -1.1566943 -3.4784026 -3.4851804 -3.3019097 0.7778536 -0.119331405 0.10980356 0.06737353
0.2149844 0.12225918 0.67672336 -1.525027 0.20816962 -4.0941668 -3.7868917 -4.1425543 0.9080078 0.039767604 0.019544551 0.045691438
0.2350976 0.5569304 0.7614349 -0.5728985 -3.9263253 -4.145846 -3.6866727 -4.0157514 0.9766151 -0.018064445 0.020027567 0.0031720598
0.028209964 0.09490203 0.20664538 -0.1316438 -3.588387 -3.67129 -3.1986723 -3.4757936 0.9026223 0.04059237 0.06218836 -0.06590425
0.211402 0.62252825 0.74485093 -0.64622927 -2.9072092 -3.861764 -4.3652854 -4.0803413 0.93697613 0.051236346 0.020206293 0.0029291674
0.11582559 0.025332673 0.8192727 -0.0016775486 -1.2322446 -3.4067857 -4.071817 -3.7050815 0.81489545 0.07107516 -0.1800957 0.10793597
0.15607232 0.22629455 0.94030064 -0.017472971 -0.4444783 -3.6765451 -3.2348304 -3.9985814 0.73625225 0.21983759 0.043377243 -0.047735177
0.018996516 0.1139114 0.9222796 0.4571118 -2.4086375 -4.175249 -3.9011989 -3.9136856 0.8774011 -0.04209786 -0.08077524 -0.05257361
0.1769349 0.3440494 0.9788147 0.65499437 -1.7880018 -3.6302645 -3.603018 -3.887779 0.8565655 0.015838137 -0.066280715 -0.08156884
0.03904676 0.31951693 0.30290878 -1.6414301 -1.7129773 -3.8454797 -3.7130923 -3.7712584 0.95906806 0.04285177 -0.0077403057 -0.029729953
0.23539048 0.008806995 0.9930251 3.877215 -4.45229 -3.8042884 -3.8713431 -4.079636 0.93914115 0.03101894 0.032567315 -0.041383315
0.037427235 0.10069379 0.2322257 -0.312869 -2.7337992 -3.68267 -3.6445649 -3.5943928 0.9711056 0.012748776 -0.009629906 -0.020973401
0.22790752 0.28067088 0.29865465 -1.5030686 -3.9886827 -4.001435 -3.49531 -3.5337718 0.9530671 0.055707287 -0.013544996 -0.011831178
0.2257007 0.21898156 0.33888575 -1.7008286 -4.0131903 -3.4232557 -3.2259464 -3.4882054 0.9518444 -0.010129195 0.011665368 -0.03338643
0.11222256 0.6069921 0.91651416 0.594575 -0.60650665 -3.346827 -3.7655861 -3.8598995 0.77404433 -0.067352444 0.019353796 0.16185416
0.02011456 0.6153537 0.6292825 -1.3211026 -2.7992773 -4.1108723 -3.9388196 -3.724142 0.8891342 -0.06471604 -0.031481273 0.023351725
0.18210389 0.16094808 0.23702195 -0.97322446 0.21663731 -3.5427575 -3.8839397 -3.88455 0.8018715 -0.011458798 -0.16204652 -0.11595039
0.1380863 0.016420187 0.93467456 1.7440788 -3.0788853 -3.7897627 -4.1785336 -3.752484 0.94809246 0.016669923 0.027764512 0.051017445
0.1328963 0.1062089 0.9841904 1.463886 -3.5656343 -4.1146936 -4.0666685 -4.3582497 0.9088782 -0.049253304 -0.0688654 -0.034070123
0.22405133 0.1400435 0.8105502 -0.4724187 -2.4084432 -3.6489658 -3.6331713 -3.2940898 0.9592549 0.041669797 0.025928957 0.0022395914
0.12516388 0.24195918 0.30283552 -2.1001432 0.89287543 -3.752069 -3.7102213 -3.679799 0.77528393 0.0073851766 0.16579987 0.025199896
0.090069905 0.011137633 0.8545674 0.52805394 -4.153347 -3.285635 -3.7470024 -3.7756543 0.9884442 0.011392706 0.0059339977 0.008687461
0.2273024 0.49052224 0.89437246 0.1794674 -2.5794687 -4.1543264 -3.8407269 -3.8442411 0.91905093 0.04782407 0.05783632 -0.030884508
0.012018961 0.19987525 0.5918635 -2.3310113 -3.7751033 -4.222881 -3.9024389 -3.9186316 0.8836581 0.0028261621 -0.06808961 -0.078485
0.012941894 0.17223768 0.9308851 0.36586377 -3.293777 -3.8635676 -3.3074505 -3.4472232 0.95506644 -0.019379256 -0.036170118 -0.01115452
0.07213938 0.43908924 0.77388984 -1.3292774 3.1873841 -3.5714965 -3.242627 -3.6861112 0.749839 -0.19122232 -0.033084664 0.09852619
0.01564205 0.5511641 0.6590555 -1.1018848 -3.4361548 -3.8690062 -3.794966 -3.709606 0.8879111 0.031540435 -0.08387756 0.04465927
0.15442269 0.3977305 0.41165274 -3.052956 -2.4196527 -3.6444576 -3.5000973 -3.3631408 0.96395475 0.014652637 0.025746826 -0.0019299752
0.027037818 0.31131837 0.4151319 -3.0533547 -3.8313901 -3.7749953 -3.5384986 -4.114357 0.9720741 0.02408691 0.0017190288 0.026033953
0.056383256 0.3500046 0.32899642 -2.020227 -0.77325803 -4.3546185 -4.6245217 -4.432529 0.9112821 0.10302627 -0.052299213 -0.014513505
0.033680506 0.0077431826 0.60531914 -0.7085437 -4.009661 -3.6130881 -4.1017795 -3.4107273 0.9758133 -0.0027574566 0.026969988 -0.0206123
0.21993256 0.2246936 0.30381146 -1.4264317 -2.2204938 -3.9322655 -3.6240084 -3.4706414 0.98091173 -0.015851175 0.014347377 -0.007780528
0.16861677 0.40102708 0.33113065 -1.9938782 -2.4740195 -3.6952965 -3.89965 -3.7209327 0.9317248 0.04169126 0.056989532 0.02271534
0.22085544 0.25122756 0.15999858 -0.27464697 -4.16818 -4.015227 -3.684673 -3.6171806 0.9248986 -0.004976428 -0.059189547 -0.0061640185
0.029899556 0.054912426 0.5362257 -1.1221008 1.2748812 -4.030391 -3.8735802 -3.9519546 0.9029717 0.025336534 -0.029112699 -0.06632548
0.0031456498 0.14313546 0.996061 1.1131797 -4.5093007 -3.8967023 -3.625933 -3.6021137 0.9156153 -0.03174964 0.05737127 -0.0004421785
0.047737334 0.17444916 0.8007559 -1.050623 -2.7527647 -4.153102 -3.4306624 -4.14924 0.7562723 -0.097788766 -0.07323351 0.19280913
0.07335489 0.36421487 0.8684461 -0.6408848 -1.9317025 -3.5579646 -3.1493516 -3.5050154 0.8196803 0.09666988 -0.022088338 -0.13401106
0.12516655 0.6125834 0.840503 0.18829645 -0.21545298 -3.451696 -3.7720919 -3.7510571 0.7858251 0.06462647 -0.17183656 -0.04826454
0.17621905 0.068022676 0.98528016 1.8351657 -3.2948086 -4.0173593 -4.135376 -4.429832 0.95074177 0.03590625 -0.018570593 0.04518269
0.078294665 0.025954695 0.89697737 0.657104 -0.62757397 -3.4291637 -3.96695 -3.6216667 0.839103 0.037576083 0.11391235 -0.13194627
0.12565738 0.35288104 0.22768922 -0.85250545 -1.5636413 -3.8528452 -3.722135 -3.8806448 0.9289726 -0.048936345 -0.026101405 -0.0055347444
0.15572052 0.3836269 0.2280147 -0.7499273 -3.9214456 -3.6048198 -3.7594674 -3.9446235 0.92797107 -0.030025823 0.022623926 0.043144945
0.1737036 0.5295324 0.742735 -0.8727856 -2.2290118 -3.6307464 -3.7304342 -4.0693855 0.90787184 0.057686966 0.04000658 0.033398084
0.06326981 0.61147654 0.9780862 2.356955 -1.6418567 -3.7903013 -3.8567393 -4.099082 0.9868525 -0.0026639022 -0.007934794 0.014172746
0.04038422 0.2173151 0.35060045 -1.9914151 -3.035008 -3.3975217 -3.2443564 -3.5914173 0.9248259 -0.057757147 -0.019219533 0.03422877
0.16990893 0.13402459 0.24176109 -0.7038741 -2.3414931 -3.6698973 -3.9764519 -3.9397085 0.9146427 0.014052355 0.067266084 -0.015183319
0.1737405 0.4340372 0.97495764 0.3859569 -2.0638807 -3.4726074 -3.6058192 -4.0339775 0.8559814 -0.012673125 0.10585571 0.118830785
0.041848414 0.35453913 0.7727091 -1.7191749 0.08180496 -3.6104898 -3.4882457 -3.835266 0.8113705 -0.1160721 0.10893508 0.13099784
0.1814891 0.5344963 0.97802263 0.91457736 -1.9028748 -3.6847053 -3.6236582 -4.0325317 0.8939729 0.05954368 -0.064132646 0.033713277
0.22932409 0.6326762 0.7825348 0.12572066 -4.023473 -4.16136 -4.460298 -4.1335998 0.95126855 -0.014473017 0.050155386 -0.014130548
0.08643928 0.25541154 0.9738408 0.7408843 -1.6805 -3.9119513 -4.045623 -4.175239 0.90857756 0.015646309 0.0732507 -0.011506404
0.015522009 0.4309634 0.73132473 -1.4097786 -2.6727064 -3.9395847 -3.6209326 -3.3452282 0.97886896 0.033633582 -0.004389672 0.017193113
0.07898439 0.21219058 0.8163048 -1.0422881 -0.3443182 -3.2898893 -3.4279716 -3.2690072 0.84330976 -0.099032536 0.010571295 -0.035691842
0.09199594 0.20729847 0.11918554 0.077549204 -0.49154717 -3.5791268 -3.5043538 -3.7093456 0.9291961 -0.05260951 0.006490211 -0.034274865
0.029927574 0.14529449 0.76876426 -1.0395155 1.6165848 -4.308655 -3.7768586 -3.9991062 0.7713594 -0.19609667 0.062229116 -0.036518592
0.17565814 0.31326818 0.71024376 -2.3776264 -3.6790502 -3.755553 -3.5381563 -3.8383482 0.9218079 -0.013129531 0.008284906 -0.057383444
0.074900635 0.3941586 0.4130334 -2.9311872 -3.3306494 -3.7650647 -3.683816 -3.619767 0.9712035 0.00013563379 0.013966847 -0.013992288
0.06613831 0.47789556 0.71399814 -1.5626763 -0.13602835 -3.6327953 -3.7753012 -3.519993 0.91295123 0.042292204 0.058199324 -0.026442947
0.02279679 0.053465176 0.19877917 0.145585 -4.218706 -4.090823 -4.2305956 -3.8536081 0.89670384 -0.041985705 -0.07472633 -0.026062975
0.23760651 0.20635335 0.80832094 -0.84344244 -4.2012835 -4.3165708 -3.9615445 -4.018007 0.93038356 0.031288918 0.023860527 0.026680687
0.19903138 0.34543854 0.2286956 -0.96697843 1.4818665 -3.7015584 -3.6098413 -3.4507692 0.76321757 -0.097930826 -0.16947778 0.05214909
0.22344196 0.42231137 0.9219641 0.2735837 -3.1886942 -3.7592661 -3.689942 -3.6917293 0.9426632 -0.047663707 0.011812811 -0.031448096
0.15016587 0.5045367 0.7350619 -1.4281061 -1.6872619 -4.2228727 -4.089574 -4.2390275 0.95383036 -0.027430575 -0.016771698 -0.030580435
0.09386437 0.27905604 0.38100958 -3.2721994 -1.5035505 -3.3777337 -3.5128667 -3.7564545 0.9082324 -0.019238168 -0.06807973 -0.04858427
0.18120383 0.047003843 0.98321015 2.085335 -3.800907 -3.7819262 -3.6813986 -3.7386427 0.9448819 -0.006113868 -0.03200966 0.04262169
0.22634584 0.29965267 0.8103689 -0.95127845 -2.3217003 -3.4951763 -3.1216083 -3.3092654 0.9251546 0.064158164 0.010434751 -0.02796753
0.06688147 0.59567624 0.7123957 -0.911018 1.2242389 -3.7573574 -3.87319 -3.7232149 0.751285 0.14572893 -0.12523021 0.019390585
0.049545556 0.16164425 0.2963878 -1.0911093 -2.5726357 -3.6302555 -3.6764488 -4.1275945 0.9331543 0.04533409 0.024366125 -0.024106978
0.018938197 0.5204725 0.81457484 -0.40870774 -2.4234807 -3.9373248 -3.510952 -3.7931795 0.9487383 0.06035885 -0.0036982882 -0.0019388193
0.048334815 0.30205682 0.27419102 -1.3774729 0.27754083 -3.7003984 -3.6399167 -3.7249317 0.90738076 0.08396606 -0.01865964 -0.048667673
0.03686341 0.51159513 0.697116 -1.2288655 4.3053846 -3.7464888 -3.79974 -3.7992399 0.9359484 -0.051039826 -0.050255027 0.022053402
0.072298214 0.5881468 0.98408663 2.3718338 -3.0191703 -3.1163466 -3.3303015 -3.6324856 0.93802035 -0.02514353 0.008427545 -0.08478373
0.010707464 0.35761276 0.97689825 0.5606476 -4.2230453 -4.0708165 -3.762085 -3.7762191 0.879855 -0.003969565 0.08899231 -0.021466214
0.14109959 0.37475383 0.81376016 -1.1862524 -3.9128304 -3.4899926 -3.5776134 -3.5960145 0.9885033 0.0074078348 -0.0084703 -0.006545245
0.13957623 0.42577183 0.77165836 -1.261677 0.8801416 -3.8046083 -3.6793118 -3.829585 0.7953948 0.12192959 0.10915187 0.01757295
0.22214298 0.029118199 0.6575268 -0.92555636 -1.8335794 -3.8610358 -3.8397343 -3.5296335 0.88524455 0.06381884 -0.01175294 -0.059006836
0.2306333 0.45994604 0.7807723 -0.95373267 -3.3190188 -3.9548268 -3.6974251 -3.624364 0.967471 -0.005851937 0.020105181 0.0012487642
0.17834999 0.13130467 0.21720311 -0.3549524 -4.0476217 -4.006036 -4.2513247 -3.7351234 0.93315315 -0.01703879 -0.060003806 -0.02287191
0.124235 0.60241807 0.8288358 -0.01470513 3.1841109 -3.2686996 -3.5426433 -3.6212134 0.89248604 -0.09425378 -0.02294888 0.060537662
0.24707118 -0.00065092026 0.7621774 -0.0736042 -4.7319846 -4.177472 -4.1391163 -3.777412 0.9644801 0.03438636 -0.030300185 0.014664364
0.1032962 0.1767817 0.110814944 0.044479076 -0.29941022 -3.1761277 -3.703421 -3.8507166 0.79035115 0.012503295 -0.121590726 0.16168357
0.06978613 0.33782774 0.4302853 -4.4246907 -3.7091913 -3.6551719 -3.699137 -4.037032 0.95344 -0.04318017 -0.011882635 -0.0070211254
0.11034572 0.4880185 0.87779844 -0.4062693 -1.5630487 -3.5052931 -3.5185797 -3.3334818 0.79791766 0.14276384 -0.0523214 0.06091236
0.048813272 0.14174287 0.6588622 -1.8430814 -1.7042289 -3.517796 -3.9475646 -3.7645297 0.7905265 -0.063350156 0.13271926 -0.16056049
0.023660589 0.29961658 0.92730206 0.06218274 -0.8533255 -4.073666 -3.7303398 -3.865132 0.8930043 0.11613838 -0.06619907 -0.07257998
0.029327845 0.42142603 0.911212 -0.045673843 -0.96691424 -3.834188 -3.8873906 -3.7302523 0.94113714 0.047584105 0.01942792 0.005242429
0.19384205 0.15670387 0.6601168 -1.974319 -4.147163 -3.4419868 -3.6829069 -3.7608755 0.97866464 -0.021548301 -0.0064303423 0.012588223
0.18580179 0.25095686 0.1340231 -0.054846622 2.7719595 -3.2683353 -3.4781628 -3.611524 0.86911684 0.052975915 -0.016578013 -0.090514466
0.07186824 0.040734712 0.72535014 -0.6852385 -1.4119234 -3.0096438 -3.9658818 -4.01696 0.72373915 0.048630793 0.17942642 -0.1861397
0.21912806 0.39338377 0.8940975 -0.19667828 -0.12797418 -3.9211087 -3.7776382 -3.5570676 0.8907224 -0.008035963 0.08412859 -0.031103441
0.017836157 0.123960525 0.6491179 -1.4240726 -2.6429968 -4.107089 -3.6700616 -3.8291569 0.97865564 0.0027514403 -0.0044219075 0.015207675
0.22229692 0.23071334 0.7173135 -1.9070219 -1.3997865 -4.034995 -3.5871348 -3.4324381 0.8430228 0.04952169 -0.10252691 -0.09626032
0.21949026 0.5857955 0.8212715 -0.0228746 -1.683062 -3.6668055 -3.6885824 -3.5792286 0.9233088 -0.043936472 -0.019790677 0.019576475
0.23078088 0.23559114 0.87080044 -0.37913522 -3.525539 -3.7968965 -3.470825 -3.475255 0.9519225 -0.044319123 0.023817532 -0.021459874
0.101558216 0.08272796 0.9786431 0.96913755 -1.9948741 -3.96371 -3.6957505 -4.4042087 0.8250922 0.07871688 -0.03152013 0.16811462
0.23394483 0.5023495 0.97918195 1.0178365 -4.1671143 -4.1117525 -3.6716816 -4.1123557 0.9561818 -0.050284192 -0.008555934 0.020196768
0.08988993 0.34047517 0.71896327 -2.0573454 2.1026125 -3.3891857 -3.4094949 -3.506805 0.8470142 -0.0907135 0.037519123 0.123764165
0.0823746 0.027698146 0.63427997 -1.1096267 -1.4503156 -3.7164328 -4.06477 -3.4304123 0.79828644 -0.13148446 -0.14717484 -0.0041426737
0.14911401 0.29697 0.9865741 0.8623162 -3.267051 -3.571099 -3.658136 -4.145118 0.96334314 0.0038001898 0.03404703 0.012814732
0.11990229 0.3724032 0.87790954 -0.6684642 -1.3220519 -3.5927258 -3.320377 -3.6891432 0.8404409 0.030689355 -0.060431853 0.14744271
0.041967176 0.009944319 0.6655168 -0.5704207 -3.5134788 -4.48815 -4.785117 -4.3369794 0.9313951 0.05064263 0.090832055 0.014169162
0.20957726 0.009215866 0.5833649 -0.6871191 -3.5563617 -3.380957 -4.11565 -3.549492 0.90081877 0.0842581 0.027166583 0.03615149
0.18979198 0.24321547 0.35264483 -2.3309727 -1.1718174 -3.5567174 -3.6324575 -3.8277557 0.90661865 -0.061157364 -0.025717206 -0.03817215
0.13064308 0.42420587 0.77199334 -1.2827877 3.6209238 -3.758969 -3.747815 -3.7485375 0.9550832 0.028774824 0.011166247 0.032690857
0.0159787 0.15706547 0.8391194 -0.26622853 -3.917951 -3.7079446 -3.4020743 -3.6600137 0.97769064 0.02149248 0.018962076 0.0016797093
0.20987508 0.42251125 0.7457636 -1.861823 -3.479256 -3.5206506 -3.78874 -3.8247175 0.8924758 0.002104871 0.06862773 -0.058114856
0.06722604 0.026209854 0.7636692 -0.4158977 -2.5377312 -3.5426726 -3.8088179 -3.7863407 0.92940426 0.0006534458 0.07245258 -0.03102959
0.037970383 0.62831676 0.74378145 -0.2202364 -4.021539 -3.9515817 -4.0500817 -3.8496356 0.9168893 -0.025988234 0.074694775 0.0054435744
0.16540542 0.3129714 0.17269956 -0.7558422 -3.0576613 -3.729461 -3.718604 -4.1036386 0.93618923 -0.037624877 -0.03919062 -0.040095244
0.018204767 0.2200807 0.6968197 -1.734096 -2.7280378 -3.9903793 -3.8396711 -3.5864425 0.93985605 0.016973408 -0.046904836 -0.02358785
0.021955164 0.36930016 0.6600056 -2.197836 -2.4173954 -3.6814795 -3.5058458 -3.7009037 0.85345536 -0.010109318 -0.067269176 0.115247026
0.19393246 0.056599658 0.7047186 -0.8871443 -4.5818195 -3.617136 -3.7112117 -3.5880132 0.9393628 0.0126073165 -0.027047599 -0.039282784
0.15927994 0.40042272 0.9685343 0.3560372 3.5022829 -3.643082 -3.8759532 -3.9908123 0.8093224 -0.010213848 -0.12448422 0.09244396
0.096562885 0.53542155 0.9596227 0.6947985 4.2098875 -3.4006846 -3.542427 -3.5534763 0.80749124 0.029481102 -0.13670573 0.12816672
0.21349847 0.10514431 0.75221926 -0.85932493 0.711436 -3.6159275 -3.2796843 -3.5603077 0.81850797 -0.17996377 -0.0030414732 -0.12254052
0.10657336 0.01816956 0.6212865 -0.78542286 -2.371896 -3.4867826 -3.9891973 -3.806622 0.874601 0.06240598 0.08074941 -0.08794432
0.037354868 0.1429189 0.23275718 -0.5892584 -2.1428368 -4.1099916 -3.8011255 -3.9256432 0.8713414 -0.093400806 0.07254056 -0.10002137
0.18206537 0.3613181 0.9295012 -0.2396358 -0.6789784 -3.7257142 -3.755999 -3.8804846 0.75498736 0.11860942 -0.0019336538 0.19514515
0.052521147 0.32140097 0.34269264 -2.3316083 4.919066 -3.6531463 -3.3516445 -3.6568801 0.79741395 0.13356896 -0.004477949 0.14176063
0.08212607 0.019650217 0.6416471 -0.70833486 -1.9381992 -3.8108068 -3.9683104 -3.439102 0.9130258 0.057878975 0.07174008 -0.0162862
0.051740304 0.35487136 0.4178148 -3.4258342 -3.9313214 -3.8415666 -3.6087396 -3.6916924 0.9205773 -0.02704221 0.052666873 0.04464422
0.03148892 0.55874604 0.6661642 -1.6015384 -3.4420192 -3.7064905 -3.5941494 -3.6629288 0.91791165 0.029267676 0.046004843 -0.002687664
0.089716144 0.62985706 0.7181314 -0.097772986 -3.7354085 -3.7971668 -4.1860924 -3.6272705 0.94372696 0.02875281 -0.07175662 0.018071586
0.22898753 0.35029998 0.8504784 -0.6809375 -3.1388352 -4.1481857 -3.9236107 -3.9536886 0.98977023 -0.0011301772 0.010441136 -0.009060807
0.16985193 0.39827466 0.26753762 -1.2395432 -2.9035332 -4.4473796 -4.3968143 -4.2677627 0.9457998 0.039656293 0.02923172 -0.017986353
0.22168654 0.36840275 0.9211393 0.019211013 -1.6255026 -3.6613455 -3.4771507 -3.3390532 0.8587001 -0.013434579 0.09152091 0.08343339
0.21913517 0.6324275 0.9364591 1.5948358 -4.439533 -3.5024774 -3.7951393 -3.7034814 0.92688894 -0.015292191 -0.030698404 0.051458005
0.07252961 0.3825436 0.38552868 -2.5879776 -2.8366454 -3.8696187 -3.9156246 -3.8910508 0.9267898 0.00706025 -0.043177646 -0.037751652
0.01762019 0.54627323 0.6503073 -1.9391028 -4.811273 -4.1538205 -3.5781267 -3.958379 0.8327753 0.03759555 0.026777241 0.1316821
0.015059925 0.23040874 0.5972264 -3.1197908 -3.7014222 -4.4851093 -4.1564045 -4.3511376 0.9126707 -0.0075673885 -0.06546076 -0.029552411
0.13471271 0.47623813 0.6291725 -2.4086843 -3.3825378 -3.6302717 -3.538356 -3.3073916 0.95000535 -0.00093488634 0.03454888 -0.028018408
0.10674333 0.025716407 0.6905296 -0.7218078 -1.0091245 -3.491351 -4.011104 -3.7067223 0.8766044 -0.019556744 -0.06223483 -0.099349275
0.2253958 0.5188869 0.8880285 0.11490693 -2.3638494 -3.8736117 -3.7211182 -3.6286914 0.9762849 -0.03401855 -0.00039294644 -0.0042414516
0.070335254 0.40067214 0.9988519 0.7774758 -4.690046 -3.5979478 -3.9689224 -4.442251 0.9846843 0.009962409 -0.008301004 -0.021005852
0.21168579 0.022728305 0.96569484 1.412785 -3.3933213 -3.406482 -4.247896 -4.11993 0.7453634 0.07054042 0.22730975 -0.04686431
0.22282082 0.080679946 0.9387158 0.8523808 -1.6656154 -3.7699187 -3.6926086 -3.4309046 0.8797135 0.12656482 -0.027286036 0.026927268
0.014558575 0.047613725 0.96509445 1.6037074 -3.0301297 -3.899376 -3.4680219 -3.5226295 0.97518116 -0.043081023 -0.009317986 -0.006411341
0.21539186 0.34972087 0.82823485 -0.89208496 -1.3706522 -3.9224195 -4.1139193 -4.1722264 0.894682 -0.028233193 0.080007695 -0.02450131
0.09972619 0.3227035 0.88633454 -0.4581378 -1.1052666 -3.4237435 -3.5454774 -3.5920625 0.84601486 0.062080298 -0.04037574 0.10287092
0.07869531 0.2559418 0.96695393 0.1662009 -0.6129257 -3.6158972 -3.8650994 -4.1154156 0.79425716 -0.1437403 -0.12539616 0.09785583
0.2038659 0.21954423 0.69739217 -2.2606566 0.35817805 -3.7252696 -3.8471086 -4.049679 0.81197023 -0.059750937 0.14300944 0.024723131
0.207065 0.11190316 0.85627455 -0.45886672 -1.6900598 -3.805602 -3.8621867 -4.021537 0.840559 0.07094882 0.021083394 0.12881298
0.16331257 0.63815457 0.7960478 0.059429917 -4.715201 -3.8323405 -4.3614273 -4.1042986 0.958918 -0.022150366 -0.03496713 -0.0030940687
0.15550593 0.16322997 0.25788867 -1.0034661 -3.328802 -4.0967975 -3.9199011 -4.0398154 0.96492404 0.015855823 -0.009742901 -0.0057263603
0.03683933 0.28454575 0.6634327 -3.5264654 0.38048473 -3.9336007 -3.8282027 -3.8891745 0.9198891 0.034744527 -0.007805789 -0.030867252
0.024447355 0.1978937 0.64229774 -2.011778 -0.3917199 -4.192865 -3.9396658 -3.8917272 0.95022976 -0.026037565 0.02423531 0.03198878
0.14211364 0.3138395 0.72145265 -2.5531297 0.8221123 -3.6024275 -3.529274 -3.6594834 0.862944 -0.084470086 -0.060481463 0.02182456
0.01436489 0.09052356 0.7306371 -0.8000568 -3.2544029 -3.8446069 -3.3465161 -3.5559635 0.92807585 0.07370749 -0.04628246 -0.028253993
0.1294511 0.29060718 0.21246427 -0.92588836 4.4614744 -3.4428566 -3.5723784 -3.4603317 0.89046127 0.08521448 -0.08999176 0.07802178
0.09622109 0.52879256 0.9463252 0.32383615 -1.1292045 -3.5147502 -3.5772145 -3.5697012 0.8264745 0.09219523 -0.09762568 -0.100752756
0.07287669 0.2968567 0.7802332 -1.4730839 2.0027053 -3.4346778 -3.153503 -3.4058907 0.7413604 0.1599413 0.10283993 0.15164131
0.19102636 0.19219638 0.67586064 -2.1952562 -2.668274 -3.7392843 -3.7970695 -4.04273 0.9759599 -0.013884278 0.016463732 -0.044794936
0.011352944 0.050564967 0.5817097 -1.0547649 -3.7915182 -4.44296 -4.1055255 -4.1412244 0.9262917 0.033691622 -0.04359582 -0.03750551
0.1169089 0.1414812 0.24228676 -0.7740212 -2.3604846 -3.6483052 -3.9104009 -3.7738168 0.9535004 0.020289954 0.04445689 0.018233774
0.020785583 0.044140287 0.22436723 0.0123581225 -4.5262337 -3.7777052 -3.925341 -3.6672032 0.89708686 -0.018137543 -0.03130801 -0.07326789
0.1955448 0.13166067 0.6552986 -1.7715328 -3.6987443 -4.178219 -4.204488 -4.327544 0.9732784 -0.021454811 0.0045724246 -0.01083964
0.0051681553 0.4508185 0.64248765 -2.093721 -4.287981 -3.626899 -3.2082806 -3.697081 0.95693994 -0.01328243 0.030096656 -0.024437862
0.12843777 0.20028399 0.824081 -0.7522203 -1.543137 -3.6413774 -3.6505225 -3.415535 0.82566273 0.040345572 -0.11866717 -0.030529946
0.088984914 0.024302639 0.8030087 -0.24710728 -1.2080473 -3.844854 -4.1941442 -4.0114646 0.8747516 0.084131785 -0.009179044 -0.042977832
0.13526393 0.43902028 0.7086014 -2.1705558 -2.8936632 -3.887683 -3.7053072 -3.8740053 0.9401563 -0.03560809 0.028681396 0.021696711
0.17616373 0.35775977 0.19344729 -0.5129865 -2.1750019 -3.534656 -3.717916 -3.8087785 0.9518304 -0.038087245 -0.03727722 -0.015935007
0.021122394 0.10125371 0.60486877 -1.4811329 -1.4932402 -4.3411856 -4.0094943 -4.0964904 0.9158851 0.006402809 -0.032634564 -0.06358771
0.13214113 0.21168672 0.9946407 0.78930074 -4.5199046 -3.6039686 -3.8052669 -4.112951 0.97172856 -0.013082825 0.019040871 0.024098864
0.02942354 0.14395548 0.19227043 -0.3224884 -3.5888789 -3.9131227 -3.3638284 -3.5671637 0.9100646 0.05096007 0.03273518 -0.052660163
0.014238104 0.017989537 0.67806906 -0.50206935 -3.6797352 -4.2085176 -4.230381 -3.943648 0.96505547 0.027607566 0.006710316 0.005738157
0.037084073 0.0696736 0.5593969 -1.1991496 1.0156639 -3.5703404 -3.6883602 -3.6593976 0.8633311 -0.007620524 0.038806863 -0.10865146
0.09358492 0.41867173 0.42358834 -2.8233027 -3.9789298 -3.8720503 -3.8096025 -3.7910867 0.96051866 -0.012357794 0.039086647 -0.00031492594
0.12560548 0.106470235 0.9823823 0.9415492 -3.1429012 -3.9617026 -4.1040463 -4.603752 0.90188986 -0.07900036 -0.061110254 -0.019269248
